# .PCD v0.7 - Point Cloud Data file format
VERSION 0.7
FIELDS x y z
SIZE 4 4 4
TYPE F F F
COUNT 1 1 1
WIDTH 1534
HEIGHT 1
VIEWPOINT 0 0 0 1 0 0 0
POINTS 1534
DATA ascii
-2.937216 9.5887203 0.115545
-2.534977 9.6698971 -0.16313
-2.7254491 9.6360369 0.190264
-2.4860959 9.6627045 0.116353
-1.693774 9.8204679 0.024999
-2.1453049 9.8812513 -0.250561
-2.300452 9.7321768 -0.041703001
-2.038914 9.7553349 0.031567
-1.517222 9.4475441 0.37773299
-1.817835 9.622818 0.23632599
-0.43311599 9.8696232 0.061188001
-0.84982997 9.6165371 0.203087
-1.354863 9.9222698 -0.021527
-0.95833099 9.8583879 0.052489001
1.033039 9.7781982 0.101875
1.223893 9.5518312 0.25908899
2.0971861 9.872036 -0.19508
1.982558 9.7522469 0.049015999
1.352931 9.7734966 0.096244998
1.672609 9.7797775 0.067264996
1.835005 9.6047478 0.25800899
1.654112 9.4397287 0.41528201
2.6697841 9.598959 -0.18644699
2.2847681 9.7085304 0.034180999
2.552408 9.6498814 0.033457
3.2338481 9.1673508 -0.31134
3.0062039 9.3216896 -0.339073
3.1714151 9.3620815 -0.14379001
3.1069951 9.5137253 0.038903002
2.8245339 9.5888453 0.043274
3.7307019 9.2469215 -0.013343
3.3816819 9.4134159 0.018044
4.072999 9.5082273 0.26956201
3.7069199 9.4525604 0.149186
-1.572991 10.064001 -0.18662401
-1.740963 10.208542 -0.40656301
-1.151432 10.596653 -0.50827199
-1.423384 10.2951 -0.347518
-0.60688698 10.423728 -0.27873501
-1.028157 10.38603 -0.31432199
-0.96363199 10.122088 -0.12007
1.424256 10.19488 -0.26173499
1.141165 10.127924 -0.145803
1.446184 9.9855728 -0.087690003
-5.5070548 -10.16955 1.114554
-5.2612319 -10.426136 1.297846
-4.84484 -10.379705 1.186527
-4.4492421 -10.31143 1.111655
5.1910172 -10.10887 0.96719903
5.3924451 -10.306815 1.20761
4.579843 -10.368872 1.174046
4.9974289 -10.358264 1.1765569
-4.6196418 -9.794961 0.58910203
-4.7555752 -10.175663 0.95444298
-5.1409512 -9.9828272 0.84652299
-4.6888661 -9.976593 0.75522798
-4.0986199 -10.230653 1.0619071
-4.199615 -9.9326286 0.66936803
-3.8297181 -10.012527 0.79453802
-3.6173129 -9.6820145 0.36996299
-3.6724041 -9.8442993 0.577084
-2.8873119 -9.6417866 0.25467899
-2.9542539 -9.7084665 0.46800801
-3.2317309 -9.7504902 0.48867801
-2.355346 -9.5367718 0.66487402
-2.44455 -9.6056824 0.44075999
-2.698081 -9.6546745 0.39208099
-2.558115 -9.6440039 0.228954
-1.968984 -9.5621309 0.34323299
-2.1798191 -9.5385628 0.47161201
1.876901 -9.4327698 0.499311
2.067564 -9.4265852 0.63058501
2.2193649 -9.4663715 0.69001698
2.4097509 -9.5681639 0.59594798
2.450568 -9.6245995 0.34844401
2.937258 -9.6216316 0.202438
2.911166 -9.7036066 0.49638101
2.655561 -9.651679 0.55620998
4.2904062 -10.149431 0.91664302
3.8467529 -9.9283466 0.67679
3.142158 -9.6925945 0.37994599
3.4341011 -9.6068144 0.25702301
3.446939 -9.7945204 0.52812302
4.727138 -9.8470821 0.65042502
4.259562 -9.8993235 0.64158601
4.3484731 -9.6784191 0.452741
-6.459897 -8.7882872 0.73870897
-2.2113631 -9.3897629 0.91393
-1.474878 -8.78866 0.98759103
-1.5737309 -9.0395813 0.79563898
-1.9024529 -9.2130337 0.85398
-1.733802 -9.2621469 0.644705
-1.9114881 -9.4234123 0.53151798
-1.597649 -9.3284302 0.51091301
-0.81897002 -9.0686016 0.511226
-1.264037 -8.8420773 0.79274398
-0.89011598 -8.8173838 0.66840702
0.25667199 -9.0513916 0.468263
-0.41404599 -8.7499475 0.61749601
0.044411998 -8.7563992 0.59410697
1.057425 -9.0668993 0.56120002
0.49493301 -8.7853584 0.61012399
0.87120903 -8.7834339 0.68265098
1.133003 -8.7945929 0.76602697
1.396114 -8.9022408 0.81797099
1.485352 -9.1478071 0.63961399
1.617443 -9.0261307 0.84654897
1.913852 -9.3126907 0.70376199
1.820845 -9.1296673 0.89675599
1.984161 -9.2397871 0.90753901
2.109309 -9.3521252 0.84201699
6.5068822 -9.0556908 0.92959201
-6.9184499 -7.9534011 0.88793898
-6.819819 -8.0090294 0.71911001
-6.501327 -7.9935212 0.31681401
-6.5939379 -8.2379694 0.557253
-6.6811509 -7.9817352 0.49803701
-1.390866 -8.5429373 1.1696579
-1.145504 -8.3176394 1.140551
-0.876665 -8.0149956 1.156426
-0.88667202 -8.5387106 0.83002102
-0.87164903 -8.253768 0.996059
-0.082625002 -8.4533663 0.72395098
-0.54089701 -8.1521883 0.92026103
-0.132614 -7.9626241 0.928662
0.87674999 -8.0203171 1.152117
0.239765 -8.0711756 0.892039
0.63578498 -8.4716721 0.78836298
0.59409702 -8.0334454 0.99455303
1.1481431 -8.294363 1.160924
1.273869 -8.6381311 0.96777999
6.8051858 -7.992034 0.68435502
6.6258321 -8.6150331 0.80230302
6.540359 -8.3051357 0.54222101
6.7170801 -8.2368393 0.70015401
6.8976631 -7.7728848 0.72491902
-6.941052 -7.671524 0.77747399
-6.9361968 -7.4117479 0.51207298
-6.9677448 -7.209558 0.244075
-7.0059438 -7.2181492 0.580208
-6.7574658 -7.7828121 0.464358
-6.85006 -7.588625 0.46774599
-6.7215762 -7.5440311 0.199012
-0.61162502 -7.5174689 1.29181
-0.31130099 -7.3586798 1.227623
-0.193756 -7.600821 1.087727
-0.017473999 -7.2164311 1.240528
0.253993 -7.1900101 1.294189
0.49182001 -7.5080361 1.2254781
6.7102828 -7.5848188 0.22657999
6.8038568 -7.694056 0.47123101
6.8707161 -7.426477 0.33220899
6.9839139 -7.1876168 0.24098
6.9641118 -7.3289828 0.50826299
6.9658661 -7.5192442 0.75011599
7.0112791 -7.2545362 0.74138701
-7.0863619 -6.4587688 0.731435
-7.0945249 -6.72014 0.63709497
-7.1621809 -6.8023591 0.356383
-7.0604329 -6.973773 0.60997403
-7.0063901 -6.2480059 0.89822799
6.879868 -6.3282318 1.2744
6.9468021 -6.392139 1.0998501
7.0160899 -6.4994898 0.91813803
7.0909491 -6.6082449 0.687913
7.0546241 -6.9415951 0.710401
7.1452608 -6.750175 0.46319601
-7.153666 -6.22683 0.63921303
-7.1808658 -5.8741398 0.637398
-7.33214 -6.1273918 0.437112
-6.8859701 -6.0634818 1.099964
-7.0092549 -5.6255002 0.814188
-6.8541899 -5.769093 1.043985
6.9201741 -6.114924 1.0439121
6.8979602 -5.798521 0.98131198
7.3614211 -5.8730121 0.46792701
7.0949249 -6.2836361 0.72595102
7.1903248 -5.9952631 0.61918098
7.0350399 -6.0141559 0.815965
-7.4655032 -5.4078732 0.47599101
-7.2176218 -5.5030189 0.630943
-7.3094301 -5.156517 0.59879601
-7.4721699 -4.6932802 0.57872802
-7.173337 -4.6776061 0.71239197
-6.7939062 -5.3851271 1.013404
-6.851387 -4.6742072 0.88200498
-6.6705718 -4.9690118 1.045674
6.8337808 -5.4431381 0.98279399
6.654285 -4.8623242 1.0383379
7.4031048 -4.9814668 0.56879503
7.2717638 -5.5804281 0.58291298
7.1816921 -4.9794011 0.68396097
6.9296989 -4.9900041 0.84100997
-7.973176 -3.819634 0.62435699
-6.9878159 -4.2312808 0.84649998
-7.592483 -3.7833321 0.76369399
-7.1443381 -3.8567059 0.87470299
-6.506402 -4.4987631 1.092442
-6.7147899 -3.886019 1.007843
-6.3565269 -3.954088 1.1472811
-0.608971 -4.0277929 0.55694503
-0.79772401 -3.9886639 1.169511
-0.56219 -4.0793972 0.78691697
0.034426998 -4.0957422 0.423513
-0.132309 -4.1808462 0.73705697
-0.132323 -4.1647849 0.68946999
0.241919 -4.1463342 0.62199199
0.62227899 -4.0333829 0.67313498
6.4087591 -4.2713122 1.129089
6.2268171 -3.8255169 1.222039
7.02281 -4.390852 0.80969101
6.573977 -3.9676499 1.048618
6.939714 -3.998419 0.902964
8.3112164 -3.924166 0.45553499
7.8937831 -4.267302 0.50523001
7.9060459 -3.9529769 0.59561002
7.3105969 -3.989176 0.78124601
-9.4236717 -2.9349029 0.259682
-9.358674 -2.8621221 0.49364901
-9.1254807 -3.004739 0.58671099
-9.0503492 -3.191597 0.451554
-8.8654823 -3.148504 0.641361
-8.494647 -3.4924059 0.57763499
-8.588706 -3.2531409 0.71308702
-8.309104 -3.3517339 0.76313198
-8.0175619 -3.5466909 0.74061
-8.04498 -3.307487 0.90486598
-7.7286868 -3.284204 1.028257
-7.3577142 -3.536025 0.94648898
-7.1700659 -3.3139529 1.141717
-6.4348259 -3.3355269 1.29071
-6.359272 -3.598706 1.200774
6.2380462 -3.5658071 1.257006
6.513731 -3.4566469 1.207673
6.800952 -3.700346 1.028194
7.0488362 -3.4311709 1.08617
7.6440892 -3.381984 0.97067499
7.912035 -3.6265481 0.73372501
8.2061157 -3.316505 0.83647603
9.1148129 -2.920531 0.74327499
9.000206 -3.10041 0.59049898
8.6429605 -3.2484939 0.68790799
8.8884974 -3.312624 0.48215601
8.7893381 -3.5341611 0.400805
9.0100937 -3.4082589 0.32979101
9.4476299 -2.9437821 0.208684
9.2946739 -2.9296479 0.48355699
-9.6891937 -2.5299201 0.744017
-9.7148428 -2.492147 0.38595
-9.673584 -2.5196609 0.122942
-9.5518646 -2.7186241 0.308002
-9.885745 -2.327909 0.55198902
-10.102974 -2.179734 0.745794
-9.399332 -2.705513 0.86763501
-9.2639875 -2.8371999 0.71416199
-3.338887 -2.3533671 0.45958599
-3.6613569 -2.2162459 1.070663
-3.5599 -2.3102679 1.063397
-3.4270411 -2.3322411 0.70435601
9.2141199 -2.7160549 1.203663
9.2073269 -2.785944 0.94722301
9.5234184 -2.74471 0.34650001
9.6690798 -2.5404789 0.200975
9.6544724 -2.562376 0.498927
9.6532707 -2.5513761 0.77585697
9.440896 -2.6599491 0.97230202
9.8388472 -2.390018 0.64390802
10.023789 -2.262989 0.79528201
-10.995545 -1.560547 1.162173
-10.372913 -1.967741 0.84412801
-10.656121 -1.755792 0.95670098
-10.491352 -1.714049 0.70883298
-10.345487 -1.63749 0.490798
-10.212823 -1.5836869 0.33261201
-10.017912 -2.0990851 0.45038
-10.157456 -1.8434761 0.41672501
-10.006253 -1.9073 0.26725999
-3.718657 -2.125597 1.053435
-3.741817 -1.653105 0.54194599
-3.796684 -1.535758 0.68559498
-3.7102821 -2.0461071 0.91381502
-3.578675 -1.978741 0.40783101
-3.6303029 -2.0037291 0.61806101
-3.507417 -2.1751211 0.56161302
3.7432051 -1.714223 0.65426999
3.752259 -1.5528131 0.35676301
3.6773009 -1.8018399 0.456644
9.896966 -2.149339 0.28640199
9.9675779 -2.2207079 0.54058701
10.826197 -1.1559581 0.70258898
10.310597 -1.588856 0.43288299
10.668639 -1.502229 0.740215
10.391263 -1.789973 0.65852499
10.268978 -1.991996 0.71361601
10.178782 -2.1346979 0.80881
10.060188 -2.062665 0.477011
11.007224 -1.3134201 0.960814
-11.143615 -1.240932 1.0543801
-11.285381 -0.85329801 0.99793601
-10.544296 -0.77344 0.38005799
-10.952995 -1.112321 0.79846001
-10.741844 -0.971066 0.56985801
-10.57132 -1.419878 0.59518701
11.298655 -1.082209 1.121545
11.374348 -0.74740702 1.043257
-11.383643 -0.43539599 0.97329098
-11.424693 -0.0070079998 0.97160703
-11.180437 -0.224315 0.77904499
-10.944352 0.01274 0.593624
-10.906355 -0.469293 0.59494102
-4.0266948 0.051514 0.17136
-4.0040488 -0.33629799 0.57749099
-4.0151472 0.026357999 0.693528
-3.9945691 0.45674899 0.84396899
4.0038972 -0.33649501 0.59234101
4.0272861 0.051872998 0.157665
4.0150981 0.024627 0.68165702
-11.127504 0.66481501 0.80191201
-11.406628 0.423482 0.99142402
-11.328211 0.82083797 1.026382
3.9959769 0.41620299 0.79308099
3.944689 0.79910803 0.94809401
3.940403 0.84939301 0.436773
10.58727 0.81833303 0.41683999
10.795429 0.95482898 0.60862899
10.94657 0.458909 0.6221
11.39069 0.38902599 0.97108603
11.327139 0.76687998 1.008356
11.10551 0.93160498 0.86605603
-11.235741 1.168678 1.106212
-10.324981 2.0249829 0.86646599
-10.607684 1.466839 0.65734601
-10.879544 1.462561 0.93228197
-10.467191 1.777364 0.73879302
-10.138815 2.0257649 0.563232
-9.9805536 1.9739259 0.276636
-3.7580371 1.715268 0.72553599
-3.7614019 1.576008 0.49609101
-3.5883231 1.952076 0.38395199
-3.6121061 2.004606 0.568703
-3.692574 1.812829 0.55386001
3.640486 2.025646 0.67732
3.5808899 1.978716 0.41851801
9.8172045 2.1759901 0.148307
9.9449577 2.1559839 0.37904999
10.138944 1.697768 0.30786601
10.10227 1.979127 0.44910401
10.315554 1.781889 0.55524099
10.670033 1.592981 0.80370897
10.822904 1.272603 0.75590599
11.237664 1.083675 1.059247
11.072495 1.368412 1.072022
-10.199841 2.1990459 1.0437109
-10.100953 2.311487 1.3050719
-9.6992989 2.4647679 0.16391
-9.8710079 2.247385 0.35703799
-9.7222624 2.4830191 0.47403201
-9.9593048 2.358762 1.021842
-9.7217255 2.50366 0.79113501
-9.5309782 2.6642561 0.615116
-9.3534689 2.750751 0.79293501
3.438782 2.320493 0.70112997
3.3405221 2.351887 0.46180999
3.510725 2.1708119 0.56113702
9.6657438 2.5452271 0.75740999
9.7834911 2.3600931 0.30433401
9.6446161 2.57864 0.17395601
9.6405373 2.575361 0.430024
9.2357807 2.8341889 0.75502098
9.4591284 2.7296519 0.58801001
10.053882 2.179415 0.644692
9.9480658 2.3420169 0.85700101
-9.4238758 2.7905431 0.509619
-9.3894434 2.935842 0.3188
-8.5611525 3.4968641 0.543163
-8.7307158 3.2797179 0.60827202
-8.9733639 3.2926681 0.43238199
-8.9125519 3.1275239 0.63289797
-9.2548704 2.9355791 0.52981198
-9.1551609 2.870012 0.78903502
-9.043416 2.990463 0.693196
-8.0787973 3.347398 0.85761398
-8.4431896 3.331471 0.717839
-6.9855332 3.422646 1.10587
-7.5577331 3.3840959 0.99250102
-6.476119 3.4536059 1.219662
7.172976 3.3170569 1.1389771
6.4671211 3.3454721 1.277003
8.073844 3.250921 0.94880098
7.7166481 3.2699649 1.045507
8.3999538 3.2126789 0.85100198
8.6956196 3.141793 0.76686603
8.974721 2.988898 0.76177299
8.86343 3.1814771 0.60953099
9.1027241 3.2730169 0.340653
8.9900694 3.2270191 0.46917501
9.331233 3.041683 0.28748199
9.1999226 3.0787251 0.41440499
9.3352909 2.8951459 0.47276601
-8.2170086 3.9531181 0.48265901
-7.856719 4.2796912 0.51598197
-7.8062029 3.9783289 0.62141502
-7.7759051 3.6485851 0.76585501
-6.773221 3.6941819 1.038956
-7.3044772 3.9988191 0.78078997
-6.9499989 4.0000038 0.89960402
-6.2497549 3.587534 1.24693
-6.6056528 3.9833441 1.033964
-6.2776408 3.8712921 1.194029
-0.61244297 4.0222402 0.50750703
-0.60713202 4.0509539 0.70907098
-0.81838799 3.9808331 1.09034
0.058502 4.098279 0.43540901
-0.110654 4.1708488 0.70234299
-0.100632 4.1874242 0.74497402
0.97115701 3.9256401 0.68474197
0.70876497 3.9935491 0.38401201
0.61348897 4.045785 0.76474601
0.24082799 4.1688151 0.71083599
6.3721161 3.600997 1.195771
6.3654461 3.9531109 1.142836
7.3797579 3.5205491 0.94991398
6.7177472 3.8782411 1.008383
7.1460462 3.832582 0.881666
8.0004063 4.0084271 0.544285
8.064786 3.7222149 0.63226599
7.6308832 3.731956 0.77322698
8.1581106 3.442591 0.75611901
8.6861439 3.6814439 0.38308299
8.4574509 3.644676 0.513174
8.7726822 3.4066651 0.48572001
-7.4074831 4.988205 0.56572598
-7.1883922 4.9811711 0.68006098
-7.046433 4.4027882 0.79892999
-6.4657211 4.2894082 1.096963
-6.9499502 4.9569931 0.82755399
-6.7009449 4.815444 0.99561602
6.5255919 4.5060639 1.080104
6.6950712 4.9578671 1.022234
7.4712682 5.402339 0.473609
7.3215642 5.1416302 0.59388697
7.4747052 4.6661901 0.582178
7.1792879 4.6383729 0.71387601
6.8625522 4.6562419 0.87568098
6.9811239 4.1988759 0.85373199
-7.2725511 5.5724778 0.58298498
-7.189362 5.9846911 0.62151301
-7.361546 5.8690271 0.46876001
-6.8408098 5.3702521 0.96033603
-7.0261512 5.9799418 0.82672101
-6.870471 5.7289109 1.003036
6.8215399 5.3363099 0.97390401
6.8541112 5.7024379 1.023352
7.3334699 6.1237059 0.436892
7.2270641 5.4914451 0.62484699
7.1838088 5.8662071 0.63498902
7.0208921 5.594193 0.800798
-6.9634781 6.639215 1.180896
-7.014214 6.4828868 0.92135799
-7.093524 6.2704501 0.72967499
-7.0926499 6.5978851 0.68703097
-7.146626 6.7469931 0.462437
-6.933393 6.3509831 1.122208
-6.890255 6.0374341 1.07899
6.8614178 5.9901142 1.11985
7.0000372 6.2153659 0.90684301
7.1542678 6.218462 0.63957399
7.0858932 6.4468422 0.73432899
7.0964279 6.711123 0.63623703
7.1634989 6.800806 0.35502201
-6.9839182 7.1877851 0.24144199
-6.9645309 7.3281431 0.50881702
-7.0117269 7.2519078 0.74210799
-7.0557609 6.9350939 0.70820498
-6.8707561 7.4268098 0.332645
-6.7104788 7.5853858 0.227375
0.011583 7.2304029 1.234085
-0.26538801 7.214469 1.284434
0.30190399 7.353436 1.226953
6.722538 7.5442858 0.200552
6.8516068 7.5868082 0.46919701
6.937819 7.407794 0.51248401
6.968812 7.2080259 0.244195
7.007 7.2140698 0.57932198
7.061842 6.968719 0.60727298
-6.9665871 7.517498 0.75153399
-6.8042951 7.6938901 0.47180399
-6.898006 7.772573 0.72537202
-6.804039 7.9921141 0.68241102
-6.5331602 8.303833 0.534702
-6.710032 8.240963 0.69341898
-1.252452 8.4035854 1.162397
-0.55072498 7.6252022 1.190298
-0.996158 8.1944008 1.117337
-0.69691002 8.1945963 0.95029801
0.180742 7.6046438 1.084128
-0.286156 8.1426315 0.86713201
0.109282 7.966907 0.92531103
0.59615499 7.5025911 1.290568
0.83277702 7.9794288 1.149483
0.48636001 8.1049614 0.92821401
0.784886 8.185936 0.99387002
1.055778 8.2701988 1.104511
6.760211 7.781817 0.46775201
6.8278122 8.0036802 0.729783
6.509665 7.9915242 0.32269499
6.689548 7.978147 0.50607997
6.9431591 7.6654329 0.779549
6.9248161 7.9421229 0.89723301
-6.232862 9.0797424 0.731677
-6.4775958 8.9802589 0.86286199
-6.6080909 8.6200409 0.78660703
-1.940169 9.1213017 1.080377
-1.714671 8.9632835 1.026091
-1.454735 8.7511272 1.0098979
-1.548949 8.986639 0.83958501
-1.35191 9.216589 0.53430301
-1.400084 9.0430403 0.69753599
-1.066589 9.1882725 0.48584601
-1.193404 9.0272274 0.62551802
-0.95838898 8.9182463 0.62548703
-0.72138399 8.5847931 0.752222
-0.26194 9.0827494 0.454101
-0.54266602 8.8640251 0.57804197
-0.062210999 8.7731619 0.58703297
0.048381001 8.453639 0.723153
0.79156202 9.0158453 0.53546399
0.387438 8.7219791 0.62734503
0.82147098 8.7416286 0.69361699
0.77306497 8.4488926 0.84129298
1.799392 9.2317905 0.72919703
1.5724829 9.2277107 0.60117
1.591738 9.0555801 0.78966099
1.145876 8.7128344 0.82987303
1.246927 8.5007534 1.067223
1.4137729 8.7973013 0.92351401
2.0047691 9.2770376 0.85963702
6.0526261 9.3369141 0.76978302
6.367671 9.1685286 0.87815201
6.2783008 8.7487602 0.57678699
6.529572 8.8019743 0.80812699
6.6131072 8.2285709 0.57209402
-6.3309102 9.3374491 0.955208
-5.9938931 9.9634504 1.163254
-6.1935711 9.6661158 1.070093
-5.8421202 9.7799969 0.94840199
-5.7199788 9.556632 0.74258798
-4.3362141 9.6881905 0.458617
-5.0400462 9.6543341 0.57716
-4.706687 9.8569336 0.65596402
-5.4584341 9.8580914 0.84682202
-5.0636301 9.9007568 0.76365399
-4.2457829 9.9059238 0.64737302
-3.8633749 9.9530392 0.70739198
-3.4204769 9.6601229 0.32543901
-3.4824641 9.8359089 0.59015101
-2.8689761 9.6518793 0.293556
-3.1685829 9.7594299 0.52480602
-2.9422591 9.7176161 0.51135802
-2.0835209 9.3283567 0.86332601
-2.255547 9.5004797 0.64515603
-2.4668641 9.5979509 0.52426302
-2.5504539 9.6389608 0.31727999
-2.709177 9.6611662 0.45157501
-1.839422 9.4698458 0.43774799
-2.0294311 9.4258633 0.60856003
-1.720003 9.2403212 0.670578
1.968659 9.3746557 0.64503002
1.942968 9.4931107 0.438676
2.236769 9.3932552 0.95158899
2.331214 9.5049744 0.74310702
2.1580839 9.4940538 0.55671901
2.3931191 9.5805807 0.509278
2.4649999 9.6357365 0.27736101
3.0330639 9.6270218 0.235332
2.658299 9.651598 0.495931
2.9540141 9.7006979 0.45704499
3.7694581 9.9713383 0.74624401
3.67607 9.6453962 0.334328
3.2515121 9.7011967 0.391821
3.6555159 9.812417 0.534877
4.2005501 9.9180422 0.65421301
4.6314039 9.7833014 0.58187097
5.1672201 9.9841423 0.853845
4.6970692 9.9730225 0.75312698
6.28478 9.5351944 1.042906
6.1224551 9.8154593 1.130529
-5.7447419 10.237976 1.270486
-5.1650939 10.133989 0.98296303
-5.3498888 10.360779 1.247606
-4.9285731 10.381323 1.194031
-4.2659922 10.144463 0.91259903
-4.487319 10.333044 1.1345249
4.1073308 10.237173 1.069198
4.782372 10.184511 0.96584803
4.508893 10.346255 1.1517791
5.3339901 10.402978 1.289351
4.920424 10.409437 1.22664
-5.9777999 -10.194032 1.349299
-5.6380849 -10.386948 1.3701169
-5.9064169 -10.471822 1.5793329
-6.2217698 -10.49813 1.825922
-5.8503041 -10.726416 1.871691
-4.9580622 -10.602012 1.48081
-5.0149379 -10.792761 1.794753
-5.436707 -10.872893 1.963333
-3.941263 -10.401458 1.498795
-4.1888418 -10.393085 1.305378
-4.2175221 -10.529285 1.571614
-4.589962 -10.674782 1.676873
-3.707046 -10.347353 1.67562
4.2185588 -10.337402 1.197029
4.0806408 -10.442986 1.474524
3.9082069 -10.466498 1.751384
4.196095 -10.603553 1.792395
4.8756809 -10.585346 1.460259
4.8681412 -10.777457 1.800861
4.5115089 -10.728217 1.8605191
5.59832 -10.676012 1.695868
5.2448878 -10.776848 1.767906
6.1165781 -10.535282 1.797014
-6.9362178 -9.7509432 2.016603
-6.5171342 -10.214321 1.803661
-6.7561779 -9.9598217 1.87204
-6.5913172 -9.8993006 1.591085
-6.4434371 -9.7574368 1.329214
-3.6546471 -10.095266 1.011674
-3.707901 -10.261312 1.3756011
-3.457778 -10.225183 1.804484
-3.369396 -10.038016 1.136286
-3.200047 -10.009745 1.413295
-2.9672141 -9.7650671 0.69085401
-3.047874 -9.8629923 1.016773
-2.757844 -9.7082653 0.96724802
-2.4904871 -9.5577888 0.93875301
-2.566561 -9.5731096 1.257489
2.3930161 -9.5076971 0.87765199
2.523546 -9.5436354 1.212088
3.636059 -10.290484 1.593962
3.2761281 -10.03313 1.29431
2.7673321 -9.7161207 1.234504
2.8359759 -9.730773 0.78595698
3.0036891 -9.8692408 1.219589
3.8737569 -10.242816 1.1839319
3.4714029 -10.068067 1.1037329
3.562922 -9.9751883 0.820795
6.4882779 -9.6735125 1.307245
6.7406578 -9.5934544 1.536826
6.6222978 -9.9247246 1.648597
6.5151339 -10.221032 1.806671
6.3812389 -10.425125 1.894788
6.2582798 -10.2482 1.592278
6.9224968 -9.4561996 1.735339
-6.6711588 -8.7226963 0.91057098
-6.8949208 -9.2946024 1.565943
-6.7767491 -9.0980997 1.2561899
-6.6894879 -9.507906 1.407428
-2.240139 -9.1745367 1.810756
-2.402633 -9.3904715 1.562547
-2.1518209 -9.1771536 1.435964
-2.040282 -9.1878595 1.114367
-1.893108 -8.962409 1.319652
-1.639492 -8.7503872 1.234892
-1.8093359 -8.6185503 1.970566
-1.760347 -8.7199383 1.533993
1.738005 -8.9396448 1.089745
1.82401 -8.8383427 1.4315701
2.127955 -9.2741899 1.0745029
2.3258719 -9.4030085 1.161218
2.0381391 -9.0215187 1.559805
2.181483 -9.23598 1.32777
6.72469 -8.9587927 1.109023
6.8859992 -8.8797331 1.303759
6.8263321 -9.2418795 1.419714
7.054595 -9.2791719 1.926507
7.0924649 -8.9343338 1.828244
7.0086989 -8.7635632 1.495872
-7.071032 -8.7612963 1.66752
-7.054523 -8.2976513 1.432319
-6.9849949 -7.88239 1.045187
-7.0726442 -7.9719901 1.439958
-7.1526442 -8.211215 2.011761
-6.8470421 -8.6271982 1.100723
-6.979506 -8.5106354 1.301873
-6.8832898 -8.1881361 0.93864202
-1.596701 -8.4018097 1.795668
-1.36517 -8.1576071 1.6568511
-1.300702 -8.2863541 1.350082
-1.1554331 -7.944272 1.545609
-0.87897199 -7.6847458 1.416141
-0.92161 -7.5091772 1.6915801
1.031244 -7.9185219 1.3828731
1.080213 -7.7373791 1.69183
1.3915679 -8.4859982 1.234285
1.613829 -8.6604156 1.332024
1.248028 -7.905992 1.826928
1.461455 -8.3389502 1.561668
6.8549328 -8.2636452 0.92561001
6.9176111 -8.5142183 1.172204
6.9485612 -8.1752119 1.074545
6.9677458 -7.8253241 0.95665002
7.018939 -8.0883245 1.242901
7.0834541 -8.5492373 1.62393
7.0911112 -8.1039953 1.552673
-6.9490728 -6.8390379 1.527719
-6.990334 -7.0075951 1.418826
-7.024435 -7.291544 1.786548
-7.0302248 -7.2926898 1.381766
-7.0204082 -7.2363429 0.92242098
-7.056622 -7.5796499 1.383224
-0.37111601 -7.0614409 1.425198
-0.41205001 -6.8912172 1.613775
-0.73656899 -7.1681328 1.842373
-0.53254098 -6.9143772 1.8036439
0.093965001 -6.9633279 1.37701
-0.233035 -6.8487978 1.496866
-0.017721999 -6.7608981 1.495517
0.187335 -6.7665138 1.535787
0.49449 -7.2267308 1.401619
0.405103 -6.8941202 1.595956
0.87730801 -7.5001001 1.6143841
0.62859499 -7.1619458 1.6042989
7.0131998 -7.2065592 1.645087
7.0239639 -7.237916 1.359437
7.058588 -7.5892138 1.410189
7.0238409 -7.2233868 0.99908298
-6.9808688 -6.7976251 1.22147
-7.0216622 -6.6586671 0.92954397
-6.8883672 -6.490294 1.39701
-6.9187412 -6.3261909 1.1492209
-6.9526649 -6.5717702 1.187372
-0.390311 -6.7555962 1.806093
-0.22263999 -6.6221118 1.771083
-0.119125 -6.6452699 1.624622
-0.042801 -6.5452628 1.773685
0.13485099 -6.5597 1.822016
0.26523501 -6.6734629 1.716445
6.9742608 -6.6677308 1.15358
6.9396768 -6.7146401 1.400875
6.9783731 -6.890233 1.340297
-6.739181 -6.1275549 1.5891171
-6.761075 -5.9282551 1.316228
-6.6212368 -5.7795839 1.573179
6.7403259 -5.6998692 1.211364
6.7196288 -5.9727321 1.473531
6.5846229 -5.5909119 1.47484
-6.0762248 -4.5438581 1.604582
-6.2285099 -4.8863139 1.610572
-6.5200462 -5.160399 1.2888221
-6.441525 -5.352324 1.597895
-5.8889351 -4.232707 1.703902
5.9051471 -4.402431 1.923751
5.9822922 -4.4577718 1.735752
6.1110721 -4.5291109 1.522401
6.3796301 -5.1032791 1.498359
6.3690729 -4.6978412 1.265833
-6.0002608 -4.1906939 1.477777
-5.8919368 -3.7711489 1.443594
-6.1488962 -4.1033702 1.291835
-5.7523508 -4.009315 1.830528
-5.7423968 -3.6010001 1.5707999
-5.6627688 -3.703728 1.7563291
-0.71882701 -4.015624 1.532643
-1.045858 -3.9044709 1.971367
-0.58757699 -4.0371008 1.706205
-0.0080340002 -4.314877 1.176232
-0.187397 -4.1418142 1.733187
0.093928002 -4.2546601 1.356813
0.65016299 -4.0519519 0.91315901
0.82522702 -3.9784069 1.229477
0.065930001 -4.2376161 1.434303
0.58562398 -4.0571718 1.5488501
5.8027749 -4.1188641 1.817504
5.6835408 -3.7789011 1.765983
6.0092368 -3.677278 1.350955
5.902246 -4.0722108 1.547742
5.8527169 -3.7620151 1.482686
5.7891202 -3.902616 1.626457
-8.6741629 -3.0659361 0.880265
-7.9884109 -3.12393 1.126206
-8.5076246 -2.980849 1.12396
-8.1781063 -2.9954021 1.2593549
-7.8565588 -2.977329 1.415466
-7.4383559 -2.9353721 1.632638
-6.600822 -3.0040309 1.654721
-6.6058512 -3.1446249 1.426054
-6.0431719 -3.393872 1.3917871
-5.8730912 -3.5018411 1.456424
-5.85604 -3.291106 1.541783
-6.0866299 -3.061554 1.6823879
-5.821661 -3.1645131 1.693161
-5.6991758 -3.279232 1.693458
-5.6389632 -3.45417 1.711485
5.6099381 -3.4962721 1.797735
5.6742911 -3.3485579 1.6738631
5.8257632 -3.49066 1.489069
6.210618 -3.3247499 1.365432
5.8343921 -3.272954 1.555186
6.0247011 -3.146085 1.571995
7.248847 -2.9020629 1.783574
7.3338819 -3.017698 1.4742481
6.4579182 -3.060972 1.571961
7.3063202 -3.203172 1.21785
8.3844929 -3.114445 0.97602201
7.7675872 -2.9682691 1.465991
8.1934566 -2.986984 1.270084
8.8958206 -2.9037709 1.004576
8.7179585 -2.8363631 1.325935
8.5545235 -2.9601281 1.138658
-10.377611 -2.224786 1.88736
-10.256083 -2.153141 1.0253789
-10.241179 -2.2406421 1.361434
-9.5537806 -2.5947919 1.0492899
-9.6803112 -2.5124941 1.39908
-9.990037 -2.3805301 1.535356
-9.1095667 -2.825537 0.96573198
-8.8146248 -2.9156859 1.046182
-8.9323425 -2.8032949 1.240803
-9.32481 -2.63586 1.448961
-8.9710722 -2.716414 1.552917
-8.6582756 -2.778245 1.585317
-8.3690729 -2.8786819 1.437228
-8.2933674 -2.7945549 1.77623
-7.8926091 -2.8099239 1.930042
-7.6829829 -2.8682649 1.771137
-3.7379999 -2.120281 1.238225
-3.682981 -2.1080151 1.41404
-3.3229761 -2.3737121 1.8297679
-3.333441 -2.4213419 1.609997
-3.4835 -2.201648 1.7865421
3.311491 -2.4665639 1.562593
3.39204 -2.322474 1.740774
3.5539629 -2.2298291 1.524099
3.7843709 -2.0751879 1.231315
7.4143491 -2.8309281 2.0687361
8.2372961 -2.80179 1.782403
7.8356252 -2.80948 1.962727
8.0289125 -2.878016 1.6057431
9.698163 -2.5031519 1.389318
9.6812868 -2.5229571 1.08304
9.9183416 -2.399725 1.193379
10.061233 -2.284508 0.985632
10.133139 -2.2919309 1.289753
-11.316298 -1.341884 1.337513
-11.48997 -1.385801 1.637603
-11.696378 -1.354201 1.960868
-11.449234 -1.569133 1.911122
-10.822081 -1.810725 1.27693
-10.562505 -2.0368121 1.34225
-11.1769 -1.768998 1.864652
-10.911153 -1.881574 1.608526
-10.912309 -1.965903 1.983216
-3.7075081 -2.0371449 1.4437211
-3.8093629 -1.542763 1.542836
-3.744688 -1.69248 1.685645
-3.5765679 -2.021481 1.8290941
-3.6679921 -1.778878 1.9715019
-3.5628531 -1.954231 2.0876219
3.582464 -2.199585 1.522527
3.5893691 -2.00295 1.816874
3.7976439 -1.547146 1.59401
3.671371 -1.891204 1.753374
10.49398 -2.14627 1.640533
10.737477 -1.97869 1.531671
10.514999 -1.928167 0.998564
11.540668 -1.2865191 1.588882
11.245651 -1.351526 1.260614
11.276497 -1.5347379 1.521795
11.026956 -1.757773 1.510977
11.772937 -1.169643 1.8122751
-11.870924 -1.0981719 1.890251
-12.010984 -0.81400198 1.837806
-11.558278 -0.62764603 1.183246
-11.818818 -0.92805701 1.641731
-11.700096 -0.79457903 1.405127
-11.580573 -1.116393 1.472772
-3.940505 -0.83448303 1.418658
3.9461579 -0.80654198 1.516481
11.560931 -0.88409698 1.294762
11.78879 -0.73715699 1.481974
11.692075 -1.02758 1.5466599
11.984316 -1.033775 2.020211
12.126698 -0.74392599 1.972162
12.011723 -0.57108402 1.687041
-12.146721 -0.50306702 1.8524359
-12.232544 -0.150673 1.875828
-11.648132 0.189291 1.183877
-12.028897 -0.26060301 1.612433
-11.856038 -0.034200002 1.388736
-11.800524 -0.42847201 1.380814
-4.0142212 -0.002746 1.239856
-3.9974799 -0.436993 1.621766
-4.0196552 -0.03334 1.769559
3.9988899 -0.42231101 1.661064
4.0140972 -0.0031669999 1.240011
4.0100732 0.33029801 1.867424
4.0196619 -0.033298999 1.7772779
11.654678 -0.198184 1.191435
11.863323 -0.0067520002 1.396257
11.849716 -0.38945001 1.426381
12.222532 -0.40880501 1.9292409
12.253106 -0.029343 1.8978961
12.05249 0.176571 1.6289361
-12.25338 0.232894 1.923546
-12.204502 0.60282803 2.000617
-11.546229 0.91993099 1.296172
-12.041169 0.50352699 1.697179
-11.803496 0.72711301 1.4932849
-11.854364 0.35992199 1.42391
-3.9602621 0.71100402 1.485101
-4.008523 0.346659 1.8707221
-3.9622059 0.73863101 1.879487
11.573489 0.58515298 1.186367
11.729489 0.740026 1.41287
11.822126 0.38357201 1.393937
12.215085 0.35160801 1.896314
12.119259 0.69943398 1.923547
11.872095 0.86343801 1.666952
-12.087044 0.94882298 2.108433
-11.703259 1.056813 1.582818
-11.807983 1.191664 1.897498
-11.527142 1.359277 1.656696
-11.184224 1.450289 1.2803431
-11.227105 1.618103 1.582731
-10.739287 2.011894 1.669751
-10.550573 2.0013249 1.215502
-10.957164 1.824695 1.545346
-3.582912 2.0100801 1.825658
-3.7299631 1.654254 1.836614
-3.6693571 1.9031 1.72918
-3.8448031 1.3022389 1.6318049
-3.8324721 1.430819 1.339857
-3.761168 1.657869 1.61808
10.836821 1.885834 1.4609441
10.572369 1.85334 0.96509099
11.596313 1.063679 1.450119
11.308395 1.276548 1.268453
11.467971 1.346506 1.55229
11.44472 1.530445 1.805554
11.192025 1.744495 1.8083251
11.97012 0.99878401 1.9465671
11.746907 1.276139 1.919549
-9.6885729 2.5189409 1.116136
-9.6912146 2.499995 1.482751
-9.1881161 2.7824271 0.98773301
-8.9160585 2.792403 1.294027
-9.4253817 2.6121261 1.360635
-9.1702957 2.7078099 1.320812
-8.1563272 2.8286259 1.719846
-8.5458879 2.813808 1.538197
-7.7287002 2.8257611 1.936532
-3.753463 2.114151 1.230637
-3.627485 2.124125 1.5320311
-3.566386 2.2129951 1.528713
-3.3111811 2.4664249 1.563694
-3.392571 2.3225541 1.738547
3.3244519 2.3687451 1.841122
3.335176 2.418998 1.6145459
3.492949 2.193867 1.776624
8.4183912 2.781981 1.75159
8.0159187 2.788121 1.969432
9.0513754 2.8576379 0.95073402
8.7698927 2.766129 1.542081
9.0285559 2.786346 1.194429
9.2055988 2.6027839 1.901952
9.1211796 2.691438 1.477107
9.7859211 2.465395 1.076032
9.4226952 2.5884409 1.543419
9.7452269 2.455898 1.928848
9.6965284 2.4997699 1.399192
10.447095 2.057874 1.158181
10.166385 2.192004 0.93447
10.296866 2.205662 1.3415101
10.0282 2.355835 1.418134
-8.6676311 2.898335 1.198858
-8.7925348 3.0096259 0.88484299
-8.2786026 3.156316 0.970186
-8.4770937 3.0113461 1.086779
-8.1364832 3.0077839 1.2541389
-7.976409 2.893105 1.583613
-7.3529601 2.833554 2.0895929
-6.9152198 2.917336 1.823529
-7.7008429 2.972317 1.477604
-7.0783129 3.0104671 1.535807
-7.25453 3.2029331 1.229298
-6.1886878 3.3334601 1.3678401
-5.8484879 3.298018 1.53251
-6.2403059 3.071631 1.608318
-5.983089 3.1632359 1.576263
-5.6852579 3.36501 1.649018
6.067554 3.3996871 1.379679
5.713501 3.257957 1.689923
5.8821001 3.2854509 1.5292031
5.8612132 3.1397359 1.689369
7.7464118 2.859977 1.776509
7.4761219 2.938221 1.615918
6.8655839 2.9944639 1.616419
6.730227 3.1510279 1.3910691
6.2008801 3.050287 1.6606981
7.943357 3.100909 1.1738189
7.8611088 2.969548 1.4309421
8.1748438 2.969157 1.314936
8.420496 2.863173 1.456364
8.5455685 3.0500259 0.98263001
8.4755325 2.9555731 1.194309
8.7754955 2.911324 1.089787
-5.8482409 3.533793 1.4659801
-5.891521 3.8240011 1.457925
-6.0561399 3.7318051 1.3206199
-5.6151028 3.4817109 1.779192
-5.795681 3.925945 1.628888
-5.6677761 3.7487061 1.785424
-0.72981399 4.0189128 1.450331
-0.59248602 4.0421829 1.641687
-1.0120029 3.914783 1.796676
-0.0098219998 4.3142438 1.177725
0.083737999 4.253437 1.368255
-0.227992 4.135994 1.734791
0.864577 3.9635961 1.340414
0.62402302 4.066988 1.0149781
0.53445101 4.0676432 1.5748039
0.039209001 4.2321291 1.468868
5.648921 3.4300561 1.6942509
5.6557961 3.657985 1.7460231
6.1593142 4.1037788 1.284034
5.8865089 3.495759 1.448561
5.8887148 3.759675 1.443716
5.7464528 3.5826621 1.563639
-6.054687 4.5761962 1.6915359
-5.9535742 4.1439219 1.514277
-6.2059159 4.6458921 1.45219
-6.416142 4.6866512 1.212568
-5.898541 4.3867712 1.9175971
-5.7702041 4.0597978 1.843742
5.7071228 3.9000061 1.842966
5.8547411 4.1674938 1.714548
5.9990921 4.1822701 1.474452
6.0850811 4.5478158 1.590029
6.2780452 4.9426169 1.5578001
6.540782 5.13275 1.244342
-6.469398 5.1571031 1.3722171
-6.6906281 5.4925961 1.195922
-6.5334949 5.5028052 1.522321
6.7048368 5.723712 1.306084
6.496315 5.3756042 1.488127
6.531074 5.6298661 1.680099
6.613627 5.9443741 1.84942
-6.8410168 6.229177 1.32979
-6.8583379 6.4766288 1.536003
-6.606307 5.8371511 1.699098
-6.7569542 6.1746402 1.579484
0.042911999 6.5452862 1.773635
-0.13491701 6.5597501 1.821981
0.222645 6.6221962 1.770992
6.856277 6.4149818 1.456996
6.8914151 6.2449908 1.184963
7.0204182 6.6423059 0.932459
6.9402661 6.5292039 1.211805
-7.0164442 7.1168828 1.26577
-7.0261459 7.1774549 0.97746402
-0.265652 6.6737232 1.716476
-0.52471399 7.2794671 1.387982
-0.41055399 6.900907 1.593989
-0.65383399 7.1999922 1.599285
-0.095246002 6.9669271 1.375039
-0.18807299 6.767365 1.5353431
0.017314 6.761569 1.494895
0.119266 6.6455579 1.624204
0.36797401 7.059926 1.424166
0.232448 6.8493352 1.496191
0.38972801 6.7551851 1.8056099
0.410236 6.8897939 1.613188
0.530554 6.912653 1.8019069
6.9382601 6.8091278 1.564548
6.9764948 6.7776332 1.231886
6.9888701 6.979104 1.387997
7.0109482 7.2208929 1.755474
7.0220981 7.1963429 1.295018
7.024087 7.1973162 0.90477002
-6.9681921 7.8231311 0.95656502
-7.015439 8.0467882 1.21369
-7.0707598 7.9501948 1.429919
-7.04252 7.4554338 1.289242
-6.9448061 8.1758299 1.065311
-6.8479991 8.2647476 0.91359699
-1.501899 8.3556299 1.62843
-1.465186 8.5074244 1.310925
-0.92243701 7.5674748 1.609737
-1.100239 8.0090485 1.38098
-1.1118701 7.7748342 1.705272
-1.273295 7.9304438 1.8552999
0.735107 7.1678219 1.837919
0.86461502 7.681953 1.401661
0.914029 7.5074749 1.67699
1.253737 8.3020849 1.2700371
1.137005 7.9463639 1.509982
1.337878 8.1695681 1.5715899
6.8970652 8.1715641 0.95741302
7.000412 8.4312954 1.317793
7.062604 8.1940756 1.4318039
6.9934359 7.8503289 1.058672
7.0640869 7.8527312 1.38809
7.1148329 7.8842258 1.82916
7.0454578 7.4812498 1.311028
-7.076201 8.4999399 1.5764149
-7.0797582 8.9046268 1.757677
-6.6813579 8.9253578 1.0379111
-6.985868 8.7908258 1.451829
-6.846961 8.9093914 1.255271
-6.9033551 8.5147276 1.143991
-2.2158411 9.2484598 1.404938
-2.141242 9.2638521 1.135959
-1.672202 8.652566 1.464637
-1.8079441 8.9025354 1.270622
-1.856948 8.8073769 1.592567
1.5751849 8.4228458 1.6761169
1.662343 8.8721409 1.0860111
1.756667 8.7710381 1.415652
2.166441 9.1918344 1.424957
2.08215 9.2320633 1.086365
1.926351 9.0295782 1.243205
6.7240639 8.7606525 0.99560702
6.8502922 9.0654926 1.346635
6.8847189 8.6127234 1.157892
7.1582971 8.7804661 2.0560269
7.0956402 8.6192083 1.691672
7.0854111 8.9430008 1.811731
6.979907 9.1245518 1.63027
-7.0529108 9.2896986 1.919405
-6.6137362 10.1132 1.818758
-6.8796248 9.5888119 1.749342
-6.6446409 9.8513393 1.613665
-6.4927688 9.4979696 1.191975
-6.7289209 9.2469435 1.285475
-6.6896801 9.5640249 1.4446909
-6.3917351 10.083601 1.551088
-6.1090779 10.114187 1.359334
-3.6204989 10.02241 0.88346797
-3.5300641 10.112851 1.162625
-3.3340671 10.07541 1.346099
-2.953388 9.7777376 0.77967101
-3.0622649 9.9074526 1.2475851
-2.362761 9.4334269 1.158879
-2.4519629 9.5544434 0.80324602
-2.6465271 9.6116037 1.568067
-2.5834911 9.5944366 1.155646
-2.8212609 9.75214 1.187927
2.4577191 9.526783 1.00282
2.5380149 9.5503073 1.2649519
3.1687701 9.9893284 1.405534
2.8390419 9.7222757 0.69299603
2.709888 9.6811972 1.006835
2.9942999 9.8342781 1.001633
3.306215 9.9972477 1.0940861
3.590832 10.05398 0.96510899
6.184165 10.150867 1.445178
6.4259539 9.7257538 1.290958
6.4371138 10.023691 1.540525
6.656064 9.8172617 1.599525
6.8502822 9.6487532 1.7435549
6.862587 9.3576031 1.555306
7.0632348 9.2303762 1.924379
6.9873419 9.4844561 1.901353
-6.5094161 10.405651 2.016423
-6.1470141 10.319524 1.578477
-6.21101 10.522937 1.854156
-5.895112 10.550068 1.6700701
-5.5633378 10.49917 1.4638571
-5.5806751 10.722053 1.753996
-4.6901841 10.564346 1.4450769
-5.2401261 10.849119 1.898079
-4.8300581 10.767629 1.78325
-3.8671639 10.242385 1.1875089
-4.1535578 10.303452 1.162595
-3.9940741 10.385274 1.409366
-4.0794101 10.521393 1.681946
-4.4278622 10.65525 1.722688
-3.6318469 10.284234 1.578523
-3.8342669 10.407114 1.662716
3.4603159 10.231038 1.837913
3.7019291 10.263515 1.388724
3.7407711 10.381318 1.746917
4.003222 10.458738 1.588244
4.2590299 10.44573 1.370579
4.317152 10.607796 1.685644
5.1259441 10.617753 1.513132
4.6371312 10.737924 1.804186
5.037076 10.798109 1.81083
5.8547149 10.480983 1.570582
5.8402772 10.710919 1.849789
5.4503732 10.80458 1.845005
6.3427658 10.29248 1.708701
6.1346021 10.541981 1.81604
-6.488533 -10.493496 2.10625
-6.5049219 -10.689562 2.4828601
-5.404716 -11.09269 2.7006459
-5.5733662 -11.082258 2.6087601
-6.2070808 -10.934105 2.605541
-5.8475642 -10.937663 2.2469511
-5.868247 -11.059694 2.645663
-5.2930918 -11.065799 2.5451889
-5.0818272 -11.05756 2.7340889
-5.040936 -10.945543 2.1505289
-5.0648069 -11.035488 2.505697
-4.2647681 -10.669825 1.926366
-4.324542 -10.776704 2.333483
-4.69627 -10.931684 2.42378
-3.9996209 -10.60034 2.215534
-3.699482 -10.403407 2.019711
-3.7403531 -10.4522 2.4557741
3.756283 -10.437072 2.8045061
3.702508 -10.39863 1.9741091
3.7352469 -10.448354 2.3729141
4.3276339 -10.74119 2.132642
4.3268728 -10.791782 2.5364571
4.0215902 -10.627658 2.6238711
5.331306 -11.081376 2.6399901
5.1680222 -11.040905 2.4763451
4.6263199 -10.905268 2.425637
4.8334441 -10.902792 2.141228
4.944468 -11.007113 2.477509
5.6103792 -11.106385 2.8397491
5.4603882 -11.05829 2.4763169
5.7774301 -11.076903 2.689738
5.6332502 -10.896052 2.0612731
5.7393389 -11.032175 2.441797
6.0526361 -10.908216 2.339469
6.2890549 -10.665086 2.123219
6.416297 -10.775278 2.517226
-7.1099911 -9.598772 2.5008121
-6.8656778 -10.063413 2.2042749
-6.7263441 -10.394711 2.3734059
-7.0413208 -9.9266672 2.7301559
-6.908525 -10.196743 2.571712
-3.2762949 -10.100289 2.468219
-3.185715 -10.042214 1.904423
-2.976156 -9.8656139 2.1337891
-2.6428871 -9.5944614 1.7065639
-2.776978 -9.6454964 2.4227791
2.638705 -9.5979376 1.61888
2.787369 -9.6722069 2.2963829
3.222173 -10.062801 1.7604899
3.467164 -10.257149 2.138567
3.060456 -9.9003153 2.5659561
3.249059 -10.088266 2.3030679
3.318254 -10.088482 2.828815
6.7078772 -10.544891 2.6740389
6.8559442 -10.249186 2.4635789
6.7554111 -10.132028 2.048862
6.9529362 -9.9409199 2.2746489
7.0030398 -9.6245613 2.06687
7.075377 -9.6993494 2.437556
1.898259 -8.768755 1.844596
1.89691 -8.6349955 2.383688
2.3395591 -9.192215 2.2977369
2.24892 -9.1948214 1.7572089
2.503943 -9.4190569 2.020679
7.1432018 -9.1282902 2.170671
7.1506419 -9.3956366 2.5204079
7.1862888 -9.0485821 2.4896441
-1.7107559 -8.3428087 2.8404191
-1.456185 -8.0364008 2.5799601
-1.409579 -8.050931 2.0601611
-1.217557 -7.7364049 2.3232651
-0.98754603 -7.465023 2.018167
-1.038799 -7.5125451 2.444494
1.019377 -7.5111809 2.0187769
0.953381 -7.3985658 2.3586559
1.44036 -8.115819 1.991397
1.696869 -8.4103098 2.201093
1.2308559 -7.7745638 2.7409451
1.456983 -8.0433702 2.4902279
7.1516261 -8.2246952 1.99939
7.1609349 -8.2309275 2.427995
7.1915832 -8.6651115 2.4447131
-0.391141 -6.8346658 2.3216021
-0.80729502 -7.244266 2.424767
-0.65581602 -7.0189419 2.074152
-0.58692998 -7.002913 2.353375
-0.19403601 -6.767828 2.376864
0.025095001 -6.7496152 2.396524
0.25432801 -6.7925649 2.3799379
0.46007001 -6.8743191 2.292995
0.70776701 -7.1215472 1.8526469
0.80268502 -7.202075 2.1198781
0.59285402 -6.9478388 2.092098
-6.7209082 -6.5004239 2.5183311
-0.27720401 -6.6415138 1.954247
-0.27233401 -6.6873431 2.156569
-0.124917 -6.5882912 2.0625491
0.012609 -6.5366321 1.945071
0.12776799 -6.6823931 2.2632661
0.055185001 -6.5983381 2.125222
0.41929999 -6.7713838 2.06971
0.24763501 -6.660533 2.1176901
0.31020001 -6.6636109 1.920661
6.7130842 -6.4077482 2.3197551
-6.5852318 -6.1321182 2.5002401
-6.4535222 -5.6308022 1.982421
-6.386003 -5.6538749 2.5741119
6.4368649 -5.5276332 1.84891
6.5796061 -6.0707941 2.351366
6.3768501 -5.595808 2.402036
-6.2353592 -5.2894268 2.727731
-6.0535741 -4.7114501 1.894256
-6.0290899 -4.766068 2.2582829
-5.8620911 -4.3234291 1.970165
-5.9475951 -4.5565662 2.1294529
-5.875814 -4.3848801 2.2550559
5.876708 -4.359241 2.375082
5.827312 -4.2649999 2.077039
6.2187028 -5.2428861 2.53195
5.9883308 -4.6395669 2.0620439
6.1159239 -4.9643469 2.643687
6.042634 -4.721735 2.704638
-5.8020139 -4.1570792 2.3092151
-5.6813359 -3.8733959 1.999096
-5.6911778 -3.7994671 2.2089319
-1.511793 -3.7692101 2.660423
-0.73633897 -3.980813 2.147536
-1.350741 -3.836169 2.9098339
-0.80342001 -3.95889 2.556885
-0.0429 -4.0979528 1.8708709
-0.40962699 -4.0211139 2.351743
-0.048106 -4.0485239 2.2442999
0.56783098 -4.0366211 1.754373
0.30316401 -4.039526 2.2043369
0.77482402 -3.9666121 2.3428359
1.40347 -3.783998 2.203444
1.172526 -3.8673871 2.4002211
1.570655 -3.7514999 2.717422
5.6396279 -3.730767 1.979082
5.7610979 -4.0754299 2.1998041
5.700932 -3.80042 2.242553
-6.7557478 -2.9059711 1.929914
-6.6872349 -2.901659 2.2635219
-5.8472419 -3.0987949 1.8628891
-5.979845 -3.061471 2.112195
-6.3625908 -2.984498 2.3182869
-5.6165719 -3.339093 1.877628
-5.6445422 -3.504761 2.1285999
-5.770164 -3.1703141 2.039192
-5.6786218 -3.2911489 2.06354
-2.441772 -3.2613981 2.7594571
-2.0614049 -3.505897 2.6086891
-2.2801781 -3.398154 2.811811
1.800015 -3.6798029 2.8399229
1.993829 -3.512038 2.3048151
1.992833 -3.557688 2.6866021
2.220094 -3.3980789 2.5486591
2.4301939 -3.242346 2.5028279
5.7274318 -3.613656 2.33095
5.6973848 -3.352843 2.16537
5.6323009 -3.300832 1.88913
6.063385 -3.028579 1.784469
5.9612012 -3.045346 2.0192261
5.7530198 -3.1732011 2.0369899
6.4028859 -2.9413741 2.0718069
6.9100518 -2.8750751 2.089632
6.8671198 -2.883791 2.424608
-9.7846832 -2.397568 2.496731
-9.7440453 -2.4593461 1.9194421
-9.0183954 -2.6468871 1.894533
-9.0099373 -2.5717881 2.4675579
-9.4403591 -2.4913621 2.421279
-8.0838842 -2.744355 2.191658
-8.157671 -2.6941719 2.551861
-8.5362501 -2.6374781 2.569165
-7.5167432 -2.8129179 2.126436
-7.2378969 -2.827122 2.288661
-7.7296872 -2.7550271 2.5446081
-7.4734011 -2.7933221 2.4583249
7.3170409 -2.83848 2.8062241
7.977242 -2.717495 2.6343679
7.623867 -2.7706289 2.7151771
7.6524601 -2.779351 2.3081591
10.05151 -2.348892 2.1084449
10.285016 -2.2643311 1.869777
10.360812 -2.224313 2.423512
-11.906826 -1.2302361 2.1891
-11.996104 -1.2450809 2.5565369
-11.179637 -1.8519959 2.557965
-11.376751 -1.711993 2.2461779
-11.460475 -1.685275 2.663605
-11.742722 -1.485309 2.762903
-3.7870641 -1.414217 2.30164
-3.75564 -1.556934 1.954908
3.741853 -1.665664 1.74043
3.657325 -1.770108 2.0838971
3.7684851 -1.489167 2.1181769
3.8017981 -1.358201 2.5466249
10.874728 -2.0053849 2.5630059
10.902598 -1.983638 2.0920501
11.394711 -1.625338 1.9355299
11.432412 -1.6906 2.381108
11.158193 -1.864382 2.4674671
11.661851 -1.500782 2.2847941
11.831431 -1.287037 2.1262469
11.895123 -1.3344361 2.5042679
-12.165046 -0.98386902 2.369323
-12.20559 -0.73590201 2.114337
-12.353027 -0.69785202 2.4294889
-3.9389989 -0.878501 1.909717
-3.861968 -1.2020431 2.07967
-3.9763939 -0.74774599 2.4191899
3.883533 -1.122534 2.272296
3.948154 -0.83828199 2.0066431
3.985003 -0.72185397 2.5120289
12.193523 -0.89710099 2.289912
12.16455 -1.065436 2.621666
12.354673 -0.78329599 2.6052589
-12.475945 -0.34903201 2.4297559
-12.404763 -0.053226002 2.166429
-12.532178 0.020798 2.4780309
-4.0379472 -0.051288001 2.2705901
-4.0415339 -0.389972 2.5667419
-4.0759239 -0.042851999 2.6652889
4.0444369 -0.407967 2.618516
4.038619 -0.057062998 2.283762
4.078362 -0.078619003 2.685534
12.400284 -0.23747 2.1921589
12.4747 -0.45404601 2.516042
12.532385 -0.083596997 2.4857471
-12.523318 0.36141199 2.5992279
-12.33726 0.66859603 2.3424051
-12.42535 0.68939602 2.718281
-3.969568 0.74906898 2.238482
-4.0695138 0.27143699 2.723685
-4.00387 0.668284 2.7045851
-3.914408 1.0182199 2.745378
4.0716362 0.231815 2.7133181
3.9658329 0.75698203 2.185899
3.995049 0.68689901 2.6175549
12.34696 0.50117999 2.2107761
12.523675 0.27562499 2.5304649
12.425654 0.61912102 2.5586021
-12.243185 0.99289399 2.8454399
-11.912887 1.252861 2.2552609
-11.991506 1.261181 2.642633
-11.272964 1.730777 1.972174
-11.156209 1.858604 2.3101909
-11.705501 1.498904 2.4733801
-11.436679 1.692441 2.408818
3.7977359 1.363376 2.573776
3.748631 1.548247 2.057687
3.892626 1.079616 2.524899
10.834092 1.998852 2.8335509
10.944324 1.976012 2.405524
10.94048 1.942302 1.937907
11.49859 1.6218539 2.2292831
11.154467 1.857764 2.7312059
11.457714 1.685564 2.669883
12.238853 0.94826603 2.553514
12.006118 1.131882 2.2337711
12.000738 1.240978 2.565845
11.739988 1.4836 2.6248491
-9.131918 2.653223 1.685892
-9.0493851 2.580323 2.3441341
-8.3069525 2.7584369 1.943845
-8.6583767 2.6411769 2.3773329
-8.2698803 2.7042429 2.316015
-7.565659 2.796386 2.233994
-7.7842212 2.763552 2.3236139
-7.5368428 2.78301 2.5576689
7.592937 2.774482 2.545264
7.6424832 2.796422 2.156285
8.3393307 2.7128861 2.187567
8.6696062 2.6226959 2.529175
7.934104 2.7164421 2.875438
8.2712612 2.666894 2.7106221
10.665443 2.102267 2.0819881
10.347995 2.229207 1.744231
10.356777 2.2361431 2.2417431
-7.3251052 2.8313179 2.7696221
-6.7341018 2.8915989 2.1289251
-7.012084 2.8740511 2.574286
-5.8886929 3.093425 1.772554
-6.3656468 2.961827 2.217243
-5.9474249 3.054384 2.0142789
-5.6443028 3.293185 1.830801
-5.7392588 3.1683049 1.9021
-5.6694551 3.2923219 2.0306909
-2.437289 3.237519 2.5080359
-2.2263911 3.3952279 2.5583379
-1.994555 3.5150149 2.3437929
-1.99888 3.558934 2.7123561
2.063765 3.501575 2.5938361
2.2794089 3.4049721 2.845439
2.444556 3.2634251 2.792639
5.6730099 3.3098869 2.081728
5.6215219 3.3264079 1.865141
5.995955 3.0252039 1.911305
5.8573322 3.1880131 2.238626
6.1088362 3.044857 2.2399609
7.3159051 2.818002 2.28672
6.9745288 2.8889821 1.920494
6.8533812 2.8754721 2.2755649
6.4552751 2.9481001 2.2630529
-5.65446 3.5137129 2.1466501
-5.6182718 3.6186781 1.97438
-5.6922898 3.790071 2.2157309
-1.821349 3.6797969 2.888958
-1.612474 3.7541499 2.8684011
-1.431594 3.7851541 2.4558339
-0.71501899 3.9895589 2.042978
-0.76576602 3.967623 2.4491379
-1.2709121 3.8520861 2.79651
-0.064080998 4.0989799 1.8644969
-0.05838 4.0492468 2.2352059
-0.40777299 4.0236592 2.30913
0.58019799 4.029963 1.7991951
0.80344701 3.959749 2.405
0.29998401 4.0399609 2.204545
1.2525229 3.8473511 2.5613279
1.474438 3.765121 2.4057691
5.6409631 3.7237129 1.971987
5.6250648 3.5151119 2.0580101
5.6895919 3.7737529 2.2160721
-6.049087 4.75105 2.0024159
-6.0490112 4.8181472 2.4288671
-5.807385 4.2183871 2.1022871
-5.7842178 4.1018639 2.2980859
-6.005023 4.650692 2.606112
-5.896811 4.405406 2.406776
5.8026509 4.0924082 2.393364
5.841157 4.2910881 2.2638819
5.805788 4.196496 1.9771
5.923202 4.4988909 2.1131549
6.0789762 4.7488871 1.863887
6.053051 4.8149629 2.2087009
-6.1740708 5.0968518 2.228164
-6.4043722 5.4931331 1.931311
-6.321866 5.4823322 2.4633851
6.387774 5.5355759 2.1210041
