# .PCD v0.7 - Point Cloud Data file format
VERSION 0.7
FIELDS x y z
SIZE 4 4 4
TYPE F F F
COUNT 1 1 1
WIDTH 1411
HEIGHT 1
VIEWPOINT 0 0 0 1 0 0 0
POINTS 1411
DATA ascii
0.30570799 -0.30432001 -0.163489
0.26044601 -0.246309 -0.25858799
0.295562 -0.27084401 -0.22687601
0.41556799 0.0147836 -0.29534599
0.46413699 0.027108699 -0.194186
0.39789301 -0.0090508005 -0.23823699
0.35181499 -0.00704055 -0.246185
0.30014199 -0.223488 -0.26422301
0.41728401 0.028296901 -0.307116
0.36268601 -0.25785199 -0.190276
0.24113099 -0.29043299 -0.22156601
0.38147601 0.022214601 -0.32007301
0.34809101 0.024089999 -0.326244
0.45104599 0.0058817999 -0.13307799
0.45748201 0.0187528 -0.156159
0.45754701 0.0215596 -0.280426
0.29990301 -0.231014 -0.25959101
0.349628 -0.29091799 -0.016274
0.346293 -0.296754 -0.021782501
0.34222499 -0.301476 -0.027145499
0.33741999 -0.30472001 -0.030551501
0.33300301 -0.30865601 -0.034987502
0.32843801 -0.31240401 -0.038848002
0.32328501 -0.31521001 -0.042552501
0.31774801 -0.31680599 -0.045914002
0.31248301 -0.31915 -0.0491
0.30747601 -0.322027 -0.052672502
0.30193201 -0.32383901 -0.055436499
0.29635999 -0.325665 -0.058213498
0.29135701 -0.328536 -0.061779499
0.28580001 -0.33034801 -0.064527497
0.27998099 -0.331633 -0.066886
0.27470201 -0.33397701 -0.070051998
0.26887101 -0.33526099 -0.072400004
0.26303899 -0.33654901 -0.074764498
0.25776401 -0.33888999 -0.077917002
0.25220099 -0.340707 -0.080671497
0.38250801 -0.226436 -0.204146
0.31440601 -0.48323801 -0.192522
0.30910799 -0.48553401 -0.19565199
0.30298999 -0.486316 -0.197604
0.29687601 -0.487093 -0.199579
0.29025099 -0.486862 -0.200793
0.28414401 -0.48763901 -0.20274501
0.27749899 -0.48740199 -0.20395599
0.27061701 -0.48666599 -0.20477299
0.26423901 -0.48693901 -0.20635299
0.257615 -0.48670599 -0.207554
0.25126499 -0.486976 -0.209163
0.244348 -0.48623699 -0.209993
0.237993 -0.48651001 -0.211567
0.23133799 -0.486276 -0.21275499
0.224727 -0.48604301 -0.213966
0.218088 -0.48580801 -0.21518201
0.211449 -0.48557499 -0.216371
0.20482001 -0.48534301 -0.21758699
0.19847 -0.48561499 -0.219174
0.191838 -0.48538199 -0.22037999
0.18546 -0.48565301 -0.22198001
0.17856801 -0.484916 -0.222804
0.172207 -0.48518699 -0.22435901
0.16608199 -0.485966 -0.226356
0.15947001 -0.485733 -0.227534
0.153091 -0.48600501 -0.22912601
0.14672101 -0.48627701 -0.23072299
0.140084 -0.48604599 -0.23190901
0.133728 -0.48631701 -0.23351599
0.12710001 -0.48608401 -0.234722
0.120975 -0.48686001 -0.236665
0.114082 -0.48612699 -0.2375
0.108003 -0.48690099 -0.239454
0.088148497 -0.461337 -0.22163901
0.081485502 -0.46109799 -0.22285099
0.074244 -0.45974201 -0.223152
0.0672765 -0.45891401 -0.22383399
0.060879499 -0.45913601 -0.225371
0.053624999 -0.45778 -0.225658
0.047225799 -0.458009 -0.227163
0.040808801 -0.458231 -0.228698
0.0338609 -0.457405 -0.22940101
0.027452899 -0.45763001 -0.230921
0.020767 -0.45732999 -0.232012
0.0140727 -0.45702499 -0.23314001
0.0071085999 -0.4562 -0.233815
0.00070069998 -0.45642799 -0.235341
-0.0057001002 -0.45664999 -0.236885
-0.0123925 -0.45634899 -0.237984
-0.0193354 -0.45552 -0.238685
-0.026043201 -0.45522001 -0.239792
-0.0324414 -0.45544699 -0.241302
-0.039106801 -0.45514199 -0.242424
-0.0460715 -0.45431501 -0.243104
-0.052756999 -0.45401299 -0.244214
-0.059442502 -0.45371199 -0.245323
-0.050890502 -0.481994 -0.26870501
-0.056162499 -0.48433399 -0.271862
-0.063142501 -0.48350701 -0.27258101
-0.069551997 -0.48373201 -0.27408901
-0.075936504 -0.48396 -0.275619
-0.081795998 -0.48524401 -0.27795601
-0.0884865 -0.48494399 -0.27908
-0.094874501 -0.48516899 -0.28061101
-0.101572 -0.48486799 -0.28171399
-0.10796 -0.48509201 -0.283234
-0.114643 -0.484795 -0.284325
-0.121334 -0.48449099 -0.28544101
-0.128305 -0.48365399 -0.28615201
-0.135005 -0.48335001 -0.28725699
-0.141977 -0.48251301 -0.28796199
-0.148912 -0.48168999 -0.28864801
-0.15588801 -0.48086199 -0.28933901
-0.163141 -0.479491 -0.28962901
-0.170406 -0.47813299 -0.28990501
-0.17791601 -0.47622401 -0.28977701
-0.185719 -0.47378099 -0.28911299
-0.193754 -0.47077501 -0.28795701
-0.211632 -0.46174499 -0.283649
0.28396901 -0.26552001 -0.236021
0.44543201 0.0074104499 -0.260142
0.37365499 -0.218251 -0.2216
0.21195 -0.27365899 -0.239089
0.27056199 -0.27279699 -0.2339
0.40846699 0.0075260499 -0.29131001
0.31203899 -0.196933 -0.273359
0.37692401 -0.236487 -0.20259701
0.35134199 0.0133 -0.31108201
0.390939 -0.245437 -0.162439
0.40843001 -0.205577 -0.19222701
0.189051 -0.120498 -0.224609
0.26537099 -0.26728499 -0.24153399
0.36866301 0.021887099 -0.32326499
0.46899199 0.032927599 -0.280209
0.25940701 -0.26034501 -0.248202
0.31160799 -0.236655 -0.25042701
0.47357601 0.024404701 -0.25175399
0.39668101 -0.0199308 -0.212455
0.45576799 0.017853601 -0.203591
0.46003401 0.022355899 -0.19892401
0.39179501 -0.0098922504 -0.240253
0.299458 -0.23824701 -0.25447899
0.29387799 -0.232021 -0.261489
0.40333599 0.030352101 -0.30855101
0.29962799 -0.305208 -0.165475
0.060442999 -0.48207799 -0.33472899
0.39935699 -0.224631 -0.17662001
0.245496 -0.25869799 -0.24989
0.39377299 -0.234723 -0.175125
0.36662999 -0.27802199 -0.013006
0.36299801 -0.28370199 -0.019291
0.35841599 -0.28641701 -0.0207805
0.35474601 -0.29247499 -0.028274501
0.35051599 -0.29664999 -0.032598
0.34671599 -0.30170399 -0.037799999
0.342159 -0.30555499 -0.042299502
0.33797899 -0.30994001 -0.047111001
0.333121 -0.31348199 -0.0505265
0.32791099 -0.31554699 -0.054292001
0.32230401 -0.317399 -0.056506999
0.31706801 -0.31971401 -0.060247499
0.31150201 -0.32153201 -0.062983498
0.30622101 -0.32388201 -0.066163503
0.30094701 -0.32622901 -0.069337502
0.29597199 -0.32909101 -0.072898999
0.29012701 -0.33037999 -0.07525
0.28456399 -0.33219501 -0.078001499
0.278745 -0.333478 -0.080356002
0.27317101 -0.33529699 -0.083122499
0.26735201 -0.33657801 -0.085468002
0.26178199 -0.338397 -0.088211
0.25594899 -0.339681 -0.090558
0.41788101 0.0357664 -0.31202701
0.31799001 -0.482126 -0.202007
0.31267399 -0.484433 -0.205125
0.30710399 -0.48622501 -0.207838
0.30098701 -0.48700601 -0.20983499
0.29435101 -0.48677099 -0.21101999
0.28796399 -0.487041 -0.212626
0.28134999 -0.48680699 -0.21381301
0.27498499 -0.487077 -0.215422
0.26808599 -0.48633599 -0.216231
0.26170501 -0.48660499 -0.217833
0.255099 -0.48637101 -0.219032
0.24845301 -0.48613599 -0.22022
0.241815 -0.485901 -0.221441
0.23544 -0.48617101 -0.22301599
0.22882099 -0.485935 -0.224245
0.222458 -0.48620501 -0.225834
0.21556801 -0.48546499 -0.226668
0.20920099 -0.48573601 -0.22825
0.202562 -0.48550001 -0.229452
0.196188 -0.485771 -0.23102701
0.18956199 -0.485535 -0.232245
0.18292101 -0.485302 -0.233448
0.176561 -0.48557201 -0.23504101
0.169946 -0.48533699 -0.236238
0.16381501 -0.48611501 -0.238213
0.157195 -0.48587999 -0.23941401
0.150821 -0.48615101 -0.241006
0.14419401 -0.48591501 -0.242194
0.13757899 -0.48568001 -0.243406
0.131201 -0.48595101 -0.245004
0.124573 -0.48571599 -0.24620099
0.117923 -0.48548299 -0.24740399
0.11158 -0.48575199 -0.249007
0.105213 -0.48602399 -0.25058299
0.099111497 -0.48680201 -0.25254399
0.078472003 -0.45967999 -0.233629
0.072085001 -0.45994899 -0.23523
0.064613499 -0.45812699 -0.235218
0.057635501 -0.45729601 -0.235918
0.050944999 -0.45699799 -0.237
0.044558398 -0.45722201 -0.23853
0.0378558 -0.45692301 -0.23964
0.0314813 -0.45714599 -0.241184
0.0244895 -0.45631799 -0.24186499
0.018089401 -0.45654401 -0.24338099
0.0114053 -0.45623901 -0.24451301
0.0044515501 -0.45541099 -0.245203
-0.00196535 -0.45563501 -0.246736
-0.0086519504 -0.45533499 -0.24784701
-0.0150316 -0.45556399 -0.24934299
-0.021997601 -0.45473301 -0.25003999
-0.028964801 -0.45390099 -0.25073799
-0.035649501 -0.45359999 -0.25185001
-0.026908999 -0.48233199 -0.27549899
-0.032491501 -0.48411801 -0.27823299
-0.039126799 -0.483881 -0.279414
-0.045754299 -0.48362601 -0.280588
-0.051874001 -0.48438299 -0.28252399
-0.0579965 -0.485138 -0.28448001
-0.064401999 -0.48536599 -0.285983
-0.071105503 -0.485064 -0.28711599
-0.077510998 -0.48528999 -0.28862399
-0.084191501 -0.48498699 -0.28974399
-0.090600498 -0.48521101 -0.29126
-0.097549498 -0.48437899 -0.29196301
-0.104531 -0.48354501 -0.29266
-0.111473 -0.48270601 -0.29337299
-0.118447 -0.48187 -0.29406801
-0.12540799 -0.48104501 -0.29475701
-0.132678 -0.47967899 -0.29504201
-0.139917 -0.47833201 -0.29532099
-0.147168 -0.47694999 -0.29560599
-0.154681 -0.47505099 -0.295479
-0.16274901 -0.47203699 -0.294267
-0.171661 -0.46748301 -0.291852
-0.18091901 -0.46247199 -0.28945401
0.41678199 -0.20448001 -0.178303
0.41209799 -0.20794301 -0.18224099
0.41900301 -0.216033 -0.142565
0.37457699 -0.24786299 -0.19041499
0.34545001 0.0081233503 -0.29358399
0.41593099 0.00161075 -0.27146199
0.285292 -0.28751701 -0.209705
0.30488601 -0.24422 -0.24711899
0.35333499 0.0058240499 -0.29377699
0.34622899 0.23863199 0.17639901
0.46465099 0.017012199 -0.22526
0.45471701 0.019960299 -0.167441
0.29326901 -0.30551499 -0.167073
0.29169199 -0.25189501 -0.245239
0.40994999 -0.015467 -0.1946
0.40397099 -0.0043302001 -0.25602299
0.39377499 0.031694401 -0.320925
0.44626799 0.0108659 -0.21136101
0.45127499 0.0138459 -0.207876
0.38563201 -0.0104702 -0.242157
0.35377201 0.0172885 -0.31886899
0.25809801 -0.27384901 -0.23749299
0.46797201 0.023891 -0.149482
0.385378 -0.0023970001 -0.28149101
0.28716299 -0.306321 -0.16902301
0.39689699 0.021816401 -0.30549699
0.38272801 0.036582101 -0.331092
0.37035501 -0.27726501 -0.0234705
0.36645901 -0.282188 -0.028702
0.36261901 -0.28717399 -0.033917502
0.358605 -0.29179299 -0.0386585
0.35461599 -0.29643199 -0.043419499
0.35069099 -0.30112299 -0.048151001
0.346481 -0.30554101 -0.0529815
0.34203899 -0.30947 -0.057387501
0.336914 -0.31218499 -0.061004501
0.33164099 -0.31453201 -0.064186499
0.32663801 -0.31740701 -0.067786001
0.32108301 -0.31922299 -0.070522003
0.31609201 -0.32209501 -0.074099503
0.31055099 -0.32390699 -0.076879002
0.30528101 -0.32624999 -0.080044001
0.29972401 -0.32806501 -0.082789503
0.29387099 -0.32935801 -0.085134
0.28859499 -0.33169901 -0.088305503
0.28274101 -0.33298799 -0.090663999
0.27690601 -0.334272 -0.093003497
0.27079001 -0.33502999 -0.094943501
0.26494899 -0.336319 -0.097286999
0.25941199 -0.338128 -0.100028
0.27691701 -0.27246499 -0.232228
0.32075301 -0.47951001 -0.210372
0.31597799 -0.48283201 -0.214205
0.31039399 -0.48462999 -0.21694399
0.30453801 -0.48591799 -0.219299
0.29843801 -0.48669201 -0.221266
0.29180601 -0.48645699 -0.222471
0.28543699 -0.48672801 -0.224042
0.279071 -0.486996 -0.225637
0.27244401 -0.48675901 -0.226858
0.265798 -0.48652101 -0.228056
0.259166 -0.486283 -0.229284
0.25254199 -0.48604801 -0.230473
0.24619 -0.48631701 -0.23205701
0.239544 -0.48607901 -0.233265
0.232913 -0.48583901 -0.23448101
0.226032 -0.48509699 -0.23530699
0.219658 -0.48536801 -0.236921
0.21328799 -0.485636 -0.238507
0.20666599 -0.48539901 -0.239701
0.20003401 -0.48516199 -0.24090201
0.19364899 -0.48542899 -0.24250899
0.186774 -0.48468801 -0.24334501
0.18041 -0.48495701 -0.24491701
0.17429399 -0.48573399 -0.24689101
0.16766199 -0.485497 -0.248109
0.16129 -0.48576301 -0.249695
0.15438899 -0.48502499 -0.25052199
0.14830901 -0.48579901 -0.25248101
0.14168 -0.48556301 -0.25368601
0.13531099 -0.48583099 -0.25529599
0.128677 -0.48559299 -0.25650799
0.122044 -0.48535699 -0.25771001
0.115677 -0.48562801 -0.25928599
0.109046 -0.48539001 -0.26050001
0.102404 -0.485154 -0.26172301
0.096311003 -0.485928 -0.26368299
0.089682497 -0.48569101 -0.26490101
0.083323501 -0.48596299 -0.26645899
0.062162999 -0.45778999 -0.24682499
0.055267502 -0.45704401 -0.247656
0.048554599 -0.45673901 -0.24877401
0.041616201 -0.45591 -0.249468
0.0352135 -0.456137 -0.250992
0.0285287 -0.45583501 -0.252103
0.0218441 -0.455533 -0.25321499
0.0151593 -0.45523101 -0.254327
0.0084747002 -0.45492801 -0.255438
0.0017591499 -0.45462301 -0.25655401
-0.0051766499 -0.453794 -0.25725099
-0.0118614 -0.45349199 -0.25836301
-0.0023699501 -0.48389101 -0.28293899
-0.0087444503 -0.484162 -0.284554
-0.0153739 -0.48392501 -0.28575
-0.021734299 -0.48419401 -0.28733999
-0.028366899 -0.48395699 -0.28853199
-0.034724701 -0.48422599 -0.29012001
-0.041089501 -0.48449701 -0.29170999
-0.047455799 -0.48476601 -0.29332799
-0.053834502 -0.48503399 -0.29491299
-0.060455501 -0.484797 -0.29611301
-0.067090496 -0.48455599 -0.29732701
-0.073752999 -0.48427501 -0.29846799
-0.080716997 -0.48344001 -0.29917201
-0.087687999 -0.48260599 -0.29987001
-0.094658501 -0.48177001 -0.30056801
-0.101908 -0.48039699 -0.30086699
-0.109426 -0.47850099 -0.300735
-0.116658 -0.47710001 -0.30083299
-0.124404 -0.47457299 -0.29999
-0.132502 -0.47165301 -0.29900399
-0.141109 -0.467659 -0.29678699
-0.15009899 -0.46319601 -0.29481101
-0.158832 -0.45922199 -0.29363999
0.39144501 0.019677799 -0.308319
0.43058199 0.0066333502 -0.27552599
0.43018401 0.019908899 -0.299393
0.37912199 -0.208047 -0.223097
0.32644701 -0.25972599 -0.222027
0.33445001 0.249487 0.233729
0.389608 -0.203237 -0.216755
0.37821499 -0.222965 -0.213248
0.28099701 -0.30702901 -0.170967
0.47241199 0.023062401 -0.230092
0.23767801 -0.28012401 -0.23599499
0.27782899 -0.26621801 -0.23790801
0.47310099 0.026716899 -0.145941
0.33919299 -0.270731 -0.19507501
0.42495799 0.0010199 -0.25844201
0.44238999 0.021418201 -0.295389
0.42733601 0.0058625499 -0.19665501
0.35064 -0.00129225 -0.26565301
0.40343899 -0.20848601 -0.195759
0.44125399 0.0079242503 -0.214836
0.27148899 -0.26654899 -0.239602
0.320654 -0.28053299 -0.196164
0.32966599 -0.269357 -0.20711499
0.33796999 -0.25681999 -0.217087
0.386558 -0.230097 -0.195125
0.27490601 -0.30777201 -0.172885
0.38108599 0.0020154 -0.29048401
0.37774101 -0.27079299 -0.027689001
0.37435099 -0.27677301 -0.033745501
0.37023199 -0.28147799 -0.039053001
0.365926 -0.28523099 -0.042896502
0.36231101 -0.29073101 -0.048548002
0.35851899 -0.295793 -0.053734001
0.35439801 -0.30029199 -0.0585365
0.34997001 -0.30395699 -0.062482499
0.34561801 -0.308011 -0.066890001
0.34087199 -0.31141999 -0.070906498
0.33585799 -0.31428301 -0.074517503
0.330836 -0.31716701 -0.078056
0.32540599 -0.31925201 -0.081225
0.31984499 -0.32106999 -0.083995499
0.31457999 -0.32341 -0.087157004
0.30901399 -0.32522699 -0.089915
0.30316499 -0.32652 -0.092246503
0.29762399 -0.32832599 -0.095026001
0.291783 -0.32961199 -0.097377501
0.28591901 -0.33090901 -0.099707
0.28009599 -0.33218801 -0.102064
0.27425301 -0.33347699 -0.104401
0.26840901 -0.334764 -0.10675
0.26258999 -0.33604601 -0.109081
0.47102201 0.021161299 -0.243444
0.37986901 0.0169544 -0.31315899
0.31862599 -0.48017201 -0.22254001
0.31441501 -0.48370501 -0.226412
0.30811599 -0.48483601 -0.228752
0.30226299 -0.48611999 -0.231089
0.29563701 -0.48588401 -0.232315
0.28952599 -0.48666 -0.234281
0.28318399 -0.48692799 -0.235856
0.27653399 -0.48668799 -0.237085
0.269894 -0.48644799 -0.238282
0.26327199 -0.48621199 -0.23949701
0.25690201 -0.48648101 -0.241092
0.25052899 -0.48674399 -0.242679
0.24366 -0.486 -0.243504
0.23728301 -0.48626801 -0.245105
0.230663 -0.486029 -0.246324
0.22375099 -0.48528299 -0.247162
0.21737599 -0.485549 -0.24872901
0.210743 -0.48531201 -0.249964
0.20437901 -0.485578 -0.25155699
0.197772 -0.48534101 -0.252745
0.19138899 -0.48560801 -0.254336
0.18476 -0.48537001 -0.255546
0.17840301 -0.48563799 -0.257126
0.171757 -0.48539799 -0.25834
0.16512001 -0.48515299 -0.25956899
0.15823799 -0.48440599 -0.26041201
0.151867 -0.48467499 -0.261994
0.145253 -0.48443401 -0.263212
0.13913099 -0.48521399 -0.26516899
0.13251901 -0.48497501 -0.26638699
0.12589 -0.48473901 -0.26757801
0.119521 -0.48500901 -0.26916599
0.112884 -0.48476899 -0.27037999
0.106514 -0.485037 -0.27196699
0.099872001 -0.48479801 -0.273182
0.093244001 -0.48456001 -0.27439901
0.086892001 -0.484828 -0.27598
0.080246001 -0.48458701 -0.27722299
0.073884003 -0.48485601 -0.278797
0.067253999 -0.48461699 -0.280022
0.060904 -0.48488599 -0.28158301
0.053740501 -0.48362899 -0.28204
0.046839099 -0.48288399 -0.282877
0.0407447 -0.48366001 -0.284841
0.034350902 -0.48392999 -0.28643799
0.027984699 -0.48419601 -0.28804401
0.021355901 -0.48395699 -0.28924
0.0147522 -0.48371801 -0.29044101
0.0083815502 -0.48398799 -0.29203299
0.0020135001 -0.48425701 -0.29364899
-0.0046204501 -0.484018 -0.29483199
-0.0107214 -0.48479301 -0.29681799
-0.017359801 -0.48455399 -0.29803801
-0.023732999 -0.48482299 -0.299602
-0.030359801 -0.48458201 -0.300841
-0.036717601 -0.48484701 -0.30242801
-0.043365799 -0.48460701 -0.30363399
-0.049983799 -0.48436499 -0.304847
-0.056876998 -0.48361799 -0.305673
-0.063784003 -0.48287001 -0.30650201
-0.070945002 -0.481601 -0.30696899
-0.078131497 -0.48030099 -0.30736101
-0.085383996 -0.47893801 -0.307639
-0.093199 -0.47651899 -0.307096
-0.100556 -0.47464001 -0.30646601
-0.10957 -0.46921501 -0.302852
0.42448199 0.0268967 -0.30651599
0.223713 -0.26223299 -0.246332
0.37671801 0.0441222 -0.33769301
0.46492001 0.0299218 -0.18009301
0.44267899 0.0141093 -0.186362
0.39471999 -0.22882301 -0.181134
0.34655201 -0.275837 -0.175421
0.323782 -0.218895 -0.25526601
0.31095001 -0.27889401 -0.208059
0.38915199 -0.013097 -0.231912
0.30555499 -0.237479 -0.25251001
0.39407101 -0.207211 -0.20797101
0.28677899 -0.28242299 -0.21624
0.18076301 -0.105255 -0.227437
0.305756 -0.213521 -0.26625001
0.26903301 -0.30896601 -0.17519701
0.379888 -0.25701499 -0.163441
0.29346001 -0.28174099 -0.214048
0.366685 -0.24175 -0.20927601
0.22383501 -0.27040201 -0.24179
0.35584301 -0.26522601 -0.186837
0.19092201 -0.136674 -0.22487
0.40580699 -0.228434 -0.155965
0.33443701 0.246076 0.218199
0.226394 -0.247437 -0.25844499
0.39303601 -0.21337301 -0.20213801
0.23624399 -0.28545201 -0.229624
0.44480801 0.0139102 -0.17462
0.41484901 -0.208993 -0.17131101
0.25246999 -0.25956601 -0.24910299
0.34743199 -0.23053201 -0.237499
0.263143 -0.30934599 -0.176553
0.33671299 -0.26242799 -0.210915
0.32524499 -0.265416 -0.215923
0.41459599 -0.220045 -0.14693099
0.36767501 -0.23560099 -0.21503399
0.37275201 -0.232767 -0.211574
0.300504 -0.27581501 -0.218867
0.365832 -0.289235 -0.057976998
0.36164299 -0.29365599 -0.062776498
0.35761899 -0.298489 -0.068005003
0.35305801 -0.30180001 -0.071571499
0.34838799 -0.30500099 -0.075148001
0.343732 -0.30870801 -0.079556502
0.339205 -0.31255499 -0.083962001
0.33430299 -0.31531799 -0.087196998
0.32897699 -0.31789199 -0.090717502
0.32331201 -0.31951499 -0.093450502
0.31791401 -0.32165799 -0.096292503
0.31228399 -0.32339799 -0.098980501
0.30635399 -0.324433 -0.101315
0.30077699 -0.32625201 -0.104064
0.294678 -0.32700199 -0.106019
0.28883499 -0.32828599 -0.108366
0.28297901 -0.32958001 -0.110709
0.27715701 -0.33085901 -0.113052
0.27132201 -0.33214399 -0.115398
0.26518601 -0.33290499 -0.11733
0.25908399 -0.33366299 -0.119243
0.37563199 -0.26495999 -0.148736
0.31994599 -0.47583199 -0.22965001
0.316679 -0.48053399 -0.23438799
0.31142199 -0.48324901 -0.23783401
0.305594 -0.48453501 -0.240183
0.29946199 -0.485322 -0.24212299
0.29335499 -0.48609701 -0.244093
0.287007 -0.48636401 -0.245683
0.28036201 -0.486123 -0.246914
0.27401099 -0.48638999 -0.248512
0.26737201 -0.48614901 -0.249718
0.26099601 -0.48641801 -0.25130299
0.25462401 -0.48668101 -0.2529
0.247724 -0.48593399 -0.25374001
0.24138001 -0.48620099 -0.25532401
0.234732 -0.48595801 -0.25655201
0.228113 -0.48571801 -0.25773701
0.221486 -0.485477 -0.25895399
0.215115 -0.48574299 -0.260548
0.208474 -0.48550099 -0.261787
0.201867 -0.48526099 -0.26297101
0.195233 -0.48502001 -0.264189
0.18885501 -0.485284 -0.265789
0.181964 -0.48453301 -0.26663801
0.175603 -0.484795 -0.26822999
0.16871201 -0.48405001 -0.26904699
0.16154 -0.48278001 -0.26952499
0.15463801 -0.48203301 -0.27035099
0.148012 -0.48179099 -0.27156901
0.142038 -0.48205599 -0.27345499
0.135285 -0.48233399 -0.27474901
0.129186 -0.48310801 -0.276728
0.123353 -0.48439601 -0.27907199
0.116976 -0.48466599 -0.280644
0.110082 -0.48391801 -0.28148201
0.103713 -0.48418301 -0.283075
0.097076498 -0.483944 -0.284307
0.090718001 -0.48421001 -0.285871
0.084074996 -0.48396799 -0.28711101
0.077455997 -0.483729 -0.288315
0.071082003 -0.483996 -0.289913
0.064723499 -0.48426199 -0.29148701
0.058079999 -0.48402101 -0.292703
0.0514635 -0.48378101 -0.293917
0.045086998 -0.48404801 -0.29552001
0.038481999 -0.48380801 -0.29673499
0.031835102 -0.483567 -0.29793999
0.0254844 -0.48383299 -0.29952499
0.019111199 -0.48410201 -0.30110499
0.0127297 -0.48436901 -0.30271199
0.0063686999 -0.48463401 -0.30431601
-0.00026269999 -0.48439601 -0.30550101
-0.0066294498 -0.48465899 -0.30709901
-0.0135235 -0.48390901 -0.30795899
-0.019887101 -0.48417199 -0.30954501
-0.0267908 -0.48341799 -0.31039301
-0.033407401 -0.48318401 -0.31157699
-0.040296301 -0.48243201 -0.31241301
-0.047456499 -0.48117101 -0.31287199
-0.054354001 -0.48041299 -0.313712
-0.061783999 -0.47865 -0.313786
-0.068944998 -0.47736499 -0.31424901
-0.076559 -0.47495499 -0.313564
-0.084443502 -0.47183499 -0.311961
0.40286201 -0.25034899 -0.118889
0.39830399 -0.25388601 -0.122887
0.39347401 -0.25718299 -0.12681
0.32405999 -0.20322099 -0.26458001
0.37260199 -0.0189225 -0.240266
0.30962199 -0.25684601 -0.234332
0.30350101 -0.25760001 -0.236287
0.33585301 -0.209021 -0.25558299
0.340339 -0.245398 -0.22925501
0.34242001 0.24782901 0.23301899
0.29733899 -0.25820199 -0.238074
0.38849401 -0.26004401 -0.130353
0.43373901 0.00099414994 -0.24506199
0.37623301 0.0073140999 -0.298807
0.38340199 -0.26282099 -0.133909
0.38772601 0.0014373499 -0.289419
0.473939 0.016440701 -0.107535
0.29651299 -0.26464999 -0.23259901
0.39989099 -0.237582 -0.153781
0.29138899 -0.28678599 -0.20778
0.30169201 -0.27013001 -0.224953
0.41698399 -0.220145 -0.13523801
0.47905001 0.023332199 -0.124147
0.37836999 -0.26572299 -0.13745099
0.231639 -0.27280599 -0.242136
0.37332499 -0.26832199 -0.140671
0.36836499 -0.271456 -0.144546
0.43494901 -0.20808101 -0.098341003
0.45870501 0.011431 -0.24247
0.46660599 0.0139679 -0.122868
0.229774 -0.285409 -0.23091599
0.36329499 -0.27430099 -0.14805201
0.35832399 -0.27698201 -0.15133099
0.35299301 -0.228733 -0.23479301
0.353129 -0.27963501 -0.154789
0.347976 -0.28212401 -0.15798
0.34260601 -0.28435701 -0.161074
0.33739799 -0.28679201 -0.164249
0.33211899 -0.28916201 -0.167408
0.32662901 -0.29103899 -0.170173
0.320867 -0.29245001 -0.17259701
0.37703601 -0.27804801 -0.0574365
0.32351401 -0.226381 -0.25054899
0.36877799 -0.28664699 -0.066604003
0.36440101 -0.29092401 -0.0713965
0.36000699 -0.29462901 -0.075401999
0.35533699 -0.29832101 -0.079796001
0.35092199 -0.30226201 -0.084198497
0.34664899 -0.30637199 -0.088602997
0.34191701 -0.30952999 -0.092176497
0.336979 -0.31251901 -0.095776498
0.331705 -0.31493199 -0.098979503
0.32664999 -0.317734 -0.102533
0.320878 -0.31918201 -0.104922
0.31515101 -0.32071 -0.107659
0.30931601 -0.32201299 -0.109993
0.30339599 -0.32311299 -0.112294
0.29757699 -0.32439399 -0.114637
0.29172301 -0.32567999 -0.116991
0.28560799 -0.32644099 -0.118911
0.27976999 -0.32772601 -0.121258
0.27365601 -0.32848299 -0.12319
0.26781601 -0.32976401 -0.125549
0.26169801 -0.33052501 -0.12746701
0.46158901 0.0141093 -0.25118199
0.31511199 -0.29387799 -0.17502099
0.31406999 -0.480203 -0.245814
0.30862299 -0.482449 -0.248862
0.30303901 -0.48425499 -0.25158101
0.29692999 -0.48503599 -0.25353399
0.290829 -0.485809 -0.25553101
0.28444901 -0.48607701 -0.257103
0.27781099 -0.48583499 -0.25831801
0.27144799 -0.48609999 -0.259902
0.26482201 -0.48585799 -0.26112401
0.25845301 -0.48612201 -0.26271799
0.25184101 -0.48587999 -0.26393199
0.24519999 -0.48563701 -0.26514301
0.23884299 -0.48590299 -0.26675999
0.23220301 -0.48565999 -0.267961
0.225848 -0.48592499 -0.26955199
0.21893001 -0.485174 -0.27039799
0.212566 -0.48543599 -0.27199501
0.205947 -0.48519301 -0.273206
0.19931801 -0.48494601 -0.274427
0.192425 -0.48419401 -0.27525601
0.185543 -0.48343199 -0.27611399
0.17865001 -0.48268899 -0.27692699
0.17148501 -0.48140901 -0.27740899
0.163938 -0.47973001 -0.27769601
0.156947 -0.47831199 -0.27776399
0.149414 -0.47628701 -0.27717099
0.136944 -0.47759601 -0.281495
0.13155299 -0.47953099 -0.28444099
0.125874 -0.481235 -0.28705701
0.120038 -0.48252699 -0.28940499
0.114201 -0.48381799 -0.291742
0.107557 -0.483583 -0.29295799
0.100925 -0.48334101 -0.29415399
0.094555497 -0.48360601 -0.295753
0.087913997 -0.483365 -0.29696
0.081573501 -0.483628 -0.29857901
0.074935503 -0.48338699 -0.299793
0.068569504 -0.48365101 -0.30137801
0.0619465 -0.48340899 -0.30258501
0.055581499 -0.483675 -0.30418101
0.048952799 -0.48343199 -0.30538699
0.042827498 -0.48420799 -0.30737001
0.036192901 -0.48396599 -0.308579
0.029829299 -0.484229 -0.31018499
0.023217799 -0.48398799 -0.311398
0.016854299 -0.48425299 -0.312996
0.0102139 -0.48401001 -0.31420201
0.0035677999 -0.48376301 -0.31543601
-0.00279255 -0.48402399 -0.31701899
-0.00969435 -0.48326701 -0.31785601
-0.016564701 -0.48251 -0.31870401
-0.0238267 -0.48153999 -0.31958899
-0.030623799 -0.48048401 -0.32000199
-0.038053501 -0.478715 -0.32007501
-0.0454669 -0.47693899 -0.32015401
-0.052878998 -0.47516701 -0.32022601
-0.060766999 -0.47162199 -0.31806201
-0.068998501 -0.46766701 -0.31545901
0.30946499 -0.29549801 -0.177678
0.30357999 -0.29669201 -0.179985
0.43090501 0.044006702 -0.31422901
0.29779601 -0.29810199 -0.18237901
0.31029499 -0.25014901 -0.23971701
0.31802401 -0.20405801 -0.26671901
0.41481799 -0.224188 -0.12784401
0.32812601 -0.27441201 -0.20059
0.354716 -0.25161999 -0.20908201
0.33413401 0.0092280004 -0.283766
0.29170701 -0.29892099 -0.18434399
0.45426899 0.032124799 -0.295632
0.46407601 0.029934701 -0.283703
0.44249901 0.0048863501 -0.25139701
0.43044499 -0.212245 -0.103192
0.426126 -0.21640199 -0.107456
0.28560501 -0.29969901 -0.186306
0.405498 -0.21594401 -0.179185
0.279515 -0.30051401 -0.188292
0.43900701 0.0033770001 -0.241955
0.34926301 -0.25356501 -0.21190099
0.40531501 -0.195666 -0.207066
0.273633 -0.301705 -0.190585
0.32590601 0.0131202 -0.28266501
0.26751599 -0.30246201 -0.192527
0.24410699 -0.279975 -0.234496
0.40644699 0.0030109 -0.28391501
0.26114401 -0.302735 -0.194096
0.378122 -0.017137 -0.237689
0.275774 -0.27828899 -0.22626001
0.26805899 -0.24037801 -0.263138
0.25476101 -0.30304301 -0.195673
0.42611101 0.00382655 -0.21004599
0.31182599 -0.22093201 -0.25957701
0.248606 -0.30362901 -0.197547
0.40759999 -0.240934 -0.029475
0.40000299 -0.25161299 -0.040887501
0.39580199 -0.255795 -0.045187499
0.39161399 -0.26020601 -0.050012
0.38704401 -0.26438901 -0.054887
0.242248 -0.30396101 -0.19915
0.274703 -0.240661 -0.261884
0.37531301 -0.27895299 -0.0700095
0.371317 -0.28353199 -0.074804001
0.36691499 -0.28749001 -0.079192497
0.36193201 -0.29037601 -0.0827775
0.35706401 -0.293634 -0.086760499
0.35323399 -0.29891199 -0.092378996
0.34940201 -0.30371499 -0.097235501
0.34455699 -0.30672601 -0.100771
0.33950299 -0.30936599 -0.103949
0.33444399 -0.31216699 -0.107522
0.32901701 -0.31419101 -0.11032
0.32349601 -0.31608501 -0.113109
0.31783101 -0.31778499 -0.115828
0.31185499 -0.31878701 -0.11813
0.30607599 -0.32026601 -0.120526
0.30024099 -0.32155699 -0.122861
0.29438201 -0.322797 -0.12521
0.28823301 -0.32340199 -0.12708201
0.28236899 -0.32468799 -0.129446
0.27626699 -0.32544601 -0.131365
0.270129 -0.32619601 -0.13332701
0.26403299 -0.32695699 -0.135234
0.45632401 0.0116493 -0.25429001
0.235828 -0.304133 -0.200665
0.43636301 0.0092280004 -0.20344301
0.314785 -0.47498599 -0.25189099
0.31081399 -0.478957 -0.256302
0.305801 -0.48179099 -0.259799
0.300235 -0.48358801 -0.262521
0.29438999 -0.48488301 -0.264853
0.28800499 -0.48515299 -0.26645601
0.28191 -0.485926 -0.268428
0.27526799 -0.48568401 -0.26964301
0.26890901 -0.48594901 -0.271236
0.26252499 -0.48621401 -0.27281901
0.25590599 -0.48596901 -0.27404401
0.249286 -0.48572299 -0.27528301
0.242643 -0.48548201 -0.27647701
0.236285 -0.48574099 -0.27809
0.22964901 -0.48549801 -0.27930501
0.22329199 -0.48575601 -0.28090701
0.216392 -0.48500699 -0.281728
0.209516 -0.48424599 -0.282581
0.20261601 -0.483491 -0.283416
0.195452 -0.48221999 -0.283885
0.18804599 -0.480452 -0.28396699
0.18087 -0.47918499 -0.28442901
0.173701 -0.47793701 -0.28496701
0.165594 -0.47452199 -0.283604
0.15891001 -0.47205001 -0.28144899
0.41653699 0.021373199 -0.30127701
0.37181899 -0.238986 -0.205855
0.453944 0.011855 -0.26609799
0.131879 -0.47278401 -0.28937599
0.127064 -0.47608101 -0.29323801
0.121973 -0.47848701 -0.29651099
0.116755 -0.48041499 -0.299463
0.110864 -0.48211399 -0.30196401
0.105029 -0.48340201 -0.30430901
0.098383501 -0.48315799 -0.305536
0.0920185 -0.48342401 -0.30714101
0.0853955 -0.48317999 -0.308359
0.078775503 -0.48293501 -0.309551
0.072655499 -0.48370901 -0.31153101
0.065768503 -0.48295599 -0.31236801
0.059385002 -0.48322299 -0.31396601
0.053025 -0.48348799 -0.31556001
0.046660502 -0.48375401 -0.317159
0.040313099 -0.48401701 -0.318762
0.033657901 -0.48377201 -0.319958
0.027031699 -0.48352799 -0.32119301
0.020671301 -0.48379299 -0.322779
0.0143058 -0.484052 -0.32437399
0.0074065998 -0.48329899 -0.325203
0.0002428 -0.48202199 -0.32568601
-0.0070174001 -0.48099801 -0.32649899
-0.0143469 -0.47907099 -0.326343
-0.021416301 -0.47762799 -0.32652599
-0.028975099 -0.47519499 -0.32585099
-0.036840901 -0.47237799 -0.324898
-0.045349501 -0.46810201 -0.322216
0.41250801 0.0038908501 -0.281831
0.36692601 0.0044944999 -0.291722
0.341135 0.24273001 0.20410401
0.39788899 -0.242063 -0.146773
0.32929701 0.0144818 -0.292198
0.42451799 0.043929599 -0.31556499
0.42155299 -0.216259 -0.130898
0.41710299 8.215e-05 -0.20358901
0.35034001 -0.26713201 -0.18963
0.41927901 -0.220208 -0.12351
0.344791 -0.26894099 -0.192368
0.38813299 0.030236499 -0.32352099
0.205054 -0.13834099 -0.23280799
0.40709901 -0.21117701 -0.186048
0.40697199 -0.222692 -0.16208
0.30418801 -0.250902 -0.241684
0.26181999 -0.28452 -0.22334699
0.38801801 -0.216278 -0.205654
0.36238101 -0.237938 -0.218161
0.28467101 -0.258903 -0.241497
0.34849301 0.248041 0.23500399
0.34842399 -0.27138701 -0.1824
0.37088299 -0.24491 -0.19993301
0.40083101 -0.24290501 -0.135526
0.31173101 -0.21239901 -0.26416901
0.45233801 0.016202999 -0.15935799
0.36014599 -0.249461 -0.20607799
0.29014301 -0.26493001 -0.23422299
0.45527101 0.0148221 -0.148114
0.25686601 -0.27945799 -0.23131999
0.39645001 -0.24722999 -0.140223
0.45555201 0.022722 -0.188079
0.242871 -0.28560999 -0.22832599
0.32160401 -0.254899 -0.230139
0.33189699 -0.27717999 -0.19093899
0.371488 -0.000149 -0.28296
0.40982401 -0.00304565 -0.25367901
0.31772801 -0.219734 -0.25736499
0.30872899 -0.263163 -0.228726
0.37068501 -0.26789299 -0.15229601
0.46420801 0.017249901 -0.25948399
0.40379101 -0.2507 -0.050703499
0.39524099 -0.25902599 -0.0598565
0.39041299 -0.26247901 -0.063875496
0.38615301 -0.26658499 -0.068209499
0.38204601 -0.27132699 -0.073411003
0.37775499 -0.27573901 -0.078238003
0.37358999 -0.279879 -0.082595997
0.36929199 -0.28396001 -0.086988002
0.36455601 -0.28722599 -0.090898998
0.36029899 -0.292018 -0.096253999
0.356684 -0.297212 -0.101492
0.35244301 -0.301278 -0.105759
0.34742701 -0.30417299 -0.109337
0.34244299 -0.30704701 -0.112896
0.33706799 -0.30914801 -0.115715
0.33156499 -0.31106901 -0.118487
0.32593301 -0.31277201 -0.12123
0.32003999 -0.31393701 -0.123535
0.31447601 -0.315761 -0.126276
0.30870199 -0.317211 -0.12868799
0.30283901 -0.31844401 -0.131026
0.29666999 -0.31909099 -0.132907
0.290894 -0.32047099 -0.135305
0.28478301 -0.32137799 -0.137279
0.27866399 -0.32217401 -0.13924199
0.272484 -0.32262701 -0.141091
0.34601101 -0.243911 -0.22671001
0.45126599 0.0087463502 -0.25777301
0.39203799 -0.25086701 -0.144264
0.306871 -0.47668901 -0.26592201
0.30243301 -0.48011401 -0.26997501
0.29687199 -0.48191401 -0.27270299
0.29077199 -0.482687 -0.27467999
0.284931 -0.48397499 -0.27703601
0.27881601 -0.48475701 -0.278997
0.27247599 -0.48502001 -0.28059
0.266103 -0.48528701 -0.282179
0.25973499 -0.48555499 -0.28376099
0.25308499 -0.48530799 -0.28498599
0.24645799 -0.48505601 -0.28621301
0.239572 -0.484301 -0.28705499
0.23266999 -0.483551 -0.287889
0.22604001 -0.48328799 -0.289132
0.219033 -0.48300901 -0.29053599
0.356213 0.0081811501 -0.302591
0.46345001 0.0149378 -0.23859499
0.197427 -0.47822499 -0.29098499
0.27742401 -0.29295999 -0.20479301
0.40982601 0.00088504999 -0.27343401
0.24568599 -0.26691499 -0.24546599
0.41859299 0.0047001 -0.27983201
0.28085801 -0.23997299 -0.25997901
0.38854799 -0.029198701 -0.221883
0.19798499 -0.133628 -0.228836
0.30773899 -0.26925799 -0.22291
0.33447501 -0.24663299 -0.23153999
0.365621 -0.27047199 -0.155507
0.117643 -0.47514999 -0.30546901
0.112603 -0.47760001 -0.30874699
0.107447 -0.48000899 -0.311955
0.101416 -0.48118299 -0.314179
0.095573999 -0.482476 -0.31650901
0.0894785 -0.483244 -0.31849
0.083111502 -0.48350999 -0.32008401
0.076482996 -0.48326501 -0.32132301
0.070106499 -0.483527 -0.322896
0.063228503 -0.48277599 -0.32373399
0.057136498 -0.48354501 -0.32572901
0.050507501 -0.48330301 -0.32692999
0.044122901 -0.48356599 -0.32852301
0.037514001 -0.48331699 -0.32975301
0.030618699 -0.48255599 -0.330607
0.023993099 -0.48231301 -0.33181199
0.0170894 -0.48155501 -0.33264801
0.0098548997 -0.48044601 -0.333312
0.0024772 -0.47854799 -0.333305
0.191754 0.24298 0.018169001
0.336537 0.25353199 0.25589401
0.202411 0.23034 0.0051719798
0.28476599 0.366552 0.378324
-0.00610345 0.32646799 0.081698999
0.333767 0.25767499 0.270134
0.046837199 0.30281401 0.055803999
0.33183101 0.20495801 0.060759
0.31333601 0.29233199 0.32647899
0.170357 0.26124001 0.033978999
0.30323899 0.250469 0.171009
0.135583 0.261574 0.026963999
0.052019499 0.30333999 0.059558999
0.29785299 0.240803 0.102979
0.071050003 0.32181901 0.085584
-0.0441259 0.42148501 0.185224
0.29730001 0.22319899 0.062628999
0.31115201 0.29124001 0.29808399
0.233068 0.180392 0.00255048
0.091574997 0.28258201 0.040888999
0.30042899 0.215157 0.058913998
0.30983901 0.24834999 0.18400399
0.224139 0.19122601 -0.0087520201
0.051762499 0.309975 0.069949001
0.29212201 0.18740501 0.041294001
0.071429998 0.28808701 0.034883998
0.00049389998 0.321298 0.073253997
0.213916 0.225466 0.000943975
0.30768499 0.213622 0.070859
-0.0461924 0.39429799 0.171524
0.298664 0.227579 0.081859
0.180815 0.27348799 0.039489001
0.32782999 0.241561 0.192809
0.082923502 0.28329599 0.030684
0.046294499 0.31608999 0.076589003
0.0073057502 0.31673801 0.064388998
0.219932 0.22673699 0.00345997
0.31085199 0.25891501 0.214224
0.29530701 0.333013 0.36777899
0.31827301 0.19383401 0.048409
0.30377501 0.231208 0.106764
0.34380099 0.217848 0.097038999
-0.031943001 0.35434899 0.124339
0.286641 0.36481801 0.38590401
0.31999299 0.21941601 0.096979
0.30389899 0.26075199 0.201809
0.198194 0.221329 -0.030326501
0.30665499 0.21977501 0.082529001
0.30522999 0.27822101 0.24183901
-0.0127997 0.338543 0.100024
-0.017251899 0.33187601 0.085109003
0.30305499 0.31808701 0.35894901
0.31869301 0.270071 0.27852899
0.31244299 0.21380199 0.075228997
0.185536 0.26668599 0.033944
0.096780501 0.28314099 0.044649001
0.30947801 0.29670599 0.31043401
0.30206299 0.28603801 0.24548399
0.32924399 0.27425799 0.30691901
-0.00048749999 0.33438799 0.094699003
0.185333 0.24115001 0.016434001
0.14076699 0.26200399 0.030828999
0.31717199 0.22397 0.111194
0.33893701 0.25818899 0.27387401
0.158848 0.26586401 0.038454
0.066369496 0.32867101 0.090859003
0.109081 0.27241501 0.029064
0.34673101 0.22274201 0.114534
0.113054 0.27852401 0.044753999
0.137523 0.28390601 0.054379001
0.32317799 0.27283299 0.303974
0.31499499 0.27751499 0.28276899
0.16594 0.240694 -0.000798525
-0.038091499 0.36645499 0.14211901
0.30106601 0.26224801 0.194429
0.31982201 0.261574 0.24522901
0.12812001 0.29754001 0.065353997
0.208849 0.23194601 0.0071179802
-0.019032201 0.35104799 0.117664
0.0084547997 0.35228801 0.112699
0.147945 0.25073901 0.011454
0.046156399 0.30907601 0.066808999
0.15866201 0.24516401 0.0084539801
0.152026 0.26399499 0.037048999
0.32868001 0.254509 0.24472401
0.0369565 0.30234501 0.046679001
0.0348069 0.32080299 0.080779001
0.31071001 0.219448 0.088073999
0.319594 0.27357799 0.29832399
0.32483399 0.25519601 0.239104
0.085694999 0.28835699 0.048114002
0.218878 0.20096999 -0.013514
0.107874 0.27798399 0.040968999
0.28889501 0.34897399 0.37444901
-0.0295217 0.37726501 0.15016399
0.168671 0.25271699 0.026624
0.024266699 0.31247401 0.063679002
0.135263 0.26815701 0.037569001
0.098396003 0.27793899 0.032054
0.18688101 0.228889 -0.0062275198
0.31280801 0.28882501 0.30672899
0.135796 0.27558199 0.046804
0.18523701 0.234245 0.0063514798
-0.024442701 0.36382201 0.134379
0.16613799 0.26808 0.039333999
-0.0125069 0.33175999 0.089729004
0.17891701 0.239756 0.014304
0.040566701 0.30816999 0.063648999
0.21970101 0.19099499 -0.013418
0.213385 0.210899 -0.0179595
-0.025312999 0.356372 0.125599
0.237941 0.19107901 0.0054524802
0.131119 0.28213301 0.052604001
0.29286799 0.33844599 0.349794
0.31641501 0.26260099 0.238959
0.30945599 0.29960901 0.33128399
0.31140399 0.191991 0.047123998
0.283081 0.38305199 0.38857901
0.202223 0.255312 0.023523999
0.332652 0.26352599 0.281804
0.31239799 0.26980701 0.24381401
-0.016490201 0.366963 0.133889
-2.765e-05 0.34193999 0.103819
0.16303299 0.24497101 0.013434
-0.0145685 0.37596801 0.14042901
-0.051866502 0.39464501 0.166529
0.113732 0.27217099 0.033629
0.152321 0.25055301 0.016464001
0.147313 0.27064201 0.042729001
0.29978001 0.333013 0.37220901
0.29237199 0.34814501 0.380294
-0.0336245 0.39145201 0.16462401
-0.019085599 0.34394401 0.107919
0.33827701 0.26461801 0.28480899
0.30285099 0.27312201 0.223849
0.079858497 0.30089301 0.065444
0.28789601 0.220302 0.031229001
0.0067849001 0.34381601 0.105264
0.32786301 0.228324 0.13974901
0.30890399 0.234721 0.132164
0.33832401 0.19960199 0.051954001
0.307381 0.25987199 0.208009
0.29881501 0.18935101 0.043019
0.183345 0.22976901 -0.0124225
0.030993201 0.33523601 0.095114
0.330856 0.26888299 0.29465401
0.314789 0.21890201 0.093208998
0.068703003 0.29905701 0.059124
0.0012383 0.35005301 0.111794
-0.0254035 0.34933901 0.115779
0.090979502 0.29572299 0.061889
0.140893 0.26915199 0.040649001
0.20928501 0.218208 -0.013354
0.19640601 0.229081 0.0026239799
0.109394 0.30010301 0.068709001
0.18231501 0.25668001 0.029199
0.19898801 0.245299 0.018924
-0.0101671 0.36167699 0.125949
0.025853699 0.34185699 0.101069
0.329404 0.232659 0.158944
0.33158001 0.197431 0.051089
0.174156 0.23974399 0.0098089799
0.30196601 0.246435 0.151269
0.31288901 0.31246099 0.356754
0.29789799 0.199242 0.042509001
0.35277599 0.23064201 0.13482399
0.24634901 0.179287 0.017524
-0.0233008 0.37205699 0.142189
0.069348 0.31345001 0.078169003
0.314354 0.22851001 0.125414
0.0113187 0.32299399 0.079979002
0.30917001 0.200918 0.048648998
-0.0110322 0.326417 0.076413997
0.31279501 0.22415601 0.106199
0.052288 0.317316 0.079163998
-0.035544802 0.38269201 0.157884
0.13418099 0.25741899 0.0091939699
0.30185401 0.34203699 0.37827399
-0.037115201 0.37433001 0.150519
0.15416799 0.27262801 0.044078998
0.31870499 0.22833 0.13037901
0.0135042 0.34610301 0.106279
0.29422301 0.277637 0.202334
0.29599801 0.25594801 0.147534
-0.040062599 0.396732 0.17231899
0.126019 0.28868401 0.058619
0.335318 0.27594101 0.30915901
0.124692 0.28058499 0.050563999
0.114507 0.293488 0.062784001
-0.043412 0.37228099 0.149294
0.093209498 0.31158099 0.078459002
0.33230001 0.241696 0.197684
0.29247001 0.36598101 0.38822901
0.080577999 0.28805399 0.044248998
0.23732799 0.201387 0.0049414798
0.29200199 0.20865101 0.038344
0.30547601 0.235678 0.12592401
0.080408499 0.30825999 0.074663997
0.31036499 0.238941 0.15134899
-0.0127335 0.34568501 0.109769
0.343853 0.249981 0.245864
0.057347 0.31091899 0.073104002
0.31778899 0.25698799 0.22669899
0.30347899 0.31176701 0.34846899
-0.038851202 0.35247299 0.121244
0.35437101 0.22536901 0.114634
0.33626801 0.224663 0.128674
0.228787 0.19104099 -0.0039325198
0.057976 0.29796499 0.052023999
-0.0472623 0.41123399 0.181024
0.0424871 0.33040601 0.090944
0.12977999 0.27424601 0.044309001
0.34892899 0.25127801 0.24878401
0.187032 0.24986599 0.023638999
0.342832 0.236545 0.168854
0.0347086 0.31387299 0.070938997
-0.042167298 0.38786301 0.165774
0.00500065 0.32840201 0.087894
0.28468701 0.37382901 0.38740399
0.0452688 0.29892799 0.036474001
0.33256599 0.253822 0.25036401
0.304524 0.284291 0.25295901
0.155192 0.246243 0.00222898
0.30640101 0.24933299 0.177779
0.30638999 0.29533201 0.28201899
0.17378999 0.246185 0.020533999
0.047205199 0.32373199 0.085219003
0.016922999 0.32394499 0.083103999
0.32123399 0.26829901 0.28596899
0.124167 0.273379 0.041149002
0.30529499 0.22556899 0.094853997
0.30888399 0.22471499 0.100614
0.0054816999 0.33578101 0.097144
0.168201 0.245324 0.017309001
0.030633399 0.30766299 0.055429
0.31198999 0.28542101 0.28638399
0.31405899 0.208156 0.062824003
0.101998 0.28379601 0.048264001
0.169442 0.239769 0.0053839702
0.064616501 0.29248601 0.043799002
0.0207124 0.348389 0.107074
0.29831499 0.26363501 0.18757901
0.0517455 0.34171599 0.098338999
0.28664601 0.35760501 0.376744
0.0232288 0.31854299 0.075144
0.118677 0.279448 0.047899
-0.0440685 0.40361699 0.176944
0.31854501 0.279403 0.310009
0.31239799 0.233776 0.13836899
0.31913701 0.25130999 0.214424
0.075788498 0.28789401 0.039879002
0.019126 0.31188199 0.059964001
0.295546 0.34014899 0.37694901
0.30527499 0.19082899 0.044868998
0.113178 0.28556901 0.054598998
0.0855105 0.30187601 0.068534002
0.31507799 0.241992 0.17734399
0.29573399 0.25270399 0.12651899
0.30761501 0.30182499 0.323309
0.29864401 0.32208201 0.34354401
0.120905 0.29522899 0.064599
0.29780099 0.216686 0.051394001
0.29179499 0.34073901 0.37152401
0.31096801 0.27526101 0.25611901
0.064282998 0.29039201 0.028284
0.30474201 0.244914 0.15867899
0.33064899 0.223796 0.125524
-0.00060244999 0.32740599 0.084784001
0.28408599 0.220777 0.025539
0.30821699 0.253732 0.196384
0.0174002 0.33139399 0.092303999
-0.0069050002 0.332782 0.092713997
0.31655899 0.27565199 0.29149899
-0.0059750001 0.34775901 0.111034
0.018657099 0.33956999 0.100249
0.23758399 0.18016 0.0073954798
0.30043399 0.25194699 0.16415399
0.28918901 0.356231 0.38348901
0.32499999 0.245537 0.207084
0.137265 0.25637099 0.014469
0.20106301 0.21911401 -0.024335001
0.29565901 0.33007801 0.34721899
0.068431497 0.30578801 0.069513999
0.34029299 0.22116201 0.112614
0.32240099 0.214496 0.083353996
0.34315401 0.232467 0.151134
0.31135401 0.29452199 0.31843901
0.17666499 0.235074 -0.00382102
0.34378001 0.208028 0.065029003
-0.032323901 0.36100301 0.134679
0.31590199 0.232852 0.14459901
0.30245599 0.23696201 0.119079
0.041212201 0.32224801 0.082874
0.23348901 0.191246 0.00056397502
0.053603999 0.325248 0.087274
0.059986498 0.32690501 0.089153998
0.30723599 0.230244 0.112989
0.22204299 0.235633 0.010084
0.32628101 0.259146 0.258324
0.30412599 0.309461 0.32702401
0.207975 0.224374 -0.0017615299
0.0122685 0.33777899 0.098499
0.074229501 0.29312199 0.052379001
0.157028 0.25047499 0.020974001
-0.0118819 0.35336599 0.118394
0.32744899 0.26291701 0.27809399
0.35005999 0.22079 0.097898997
0.091901504 0.30339801 0.070559002
0.31222001 0.29805401 0.338164
0.074408501 0.30697599 0.072118998
0.21377 0.21841399 -0.00880602
0.0057270499 0.32202399 0.076869003
0.30228901 0.31179899 0.31841901
0.30108899 0.242672 0.13143399
0.30922899 0.27103499 0.236994
0.32399699 0.26398301 0.27183899
0.32565299 0.26817 0.29091901
0.29521099 0.21811201 0.043749001
0.062811002 0.30481699 0.066418998
0.29379699 0.33544701 0.359429
0.33737901 0.22867 0.14847399
-0.0384016 0.35938501 0.132319
0.322377 0.28566501 0.325804
-0.039896801 0.41338599 0.18180899
0.129674 0.26738 0.034334
0.096588999 0.296738 0.064953998
0.300304 0.26829201 0.206039
0.306133 0.27231199 0.23016401
0.31326801 0.247354 0.190254
0.31433299 0.27416801 0.26292899
0.33558899 0.21095701 0.076638997
0.324763 0.195447 0.049973998
0.33930999 0.249428 0.241669
0.351181 0.25680199 0.265769
0.29564801 0.242525 0.095484003
0.31391501 0.238061 0.15756901
-0.036034301 0.40686101 0.176594
0.29179901 0.219364 0.037204001
0.34084901 0.25366801 0.26074901
0.31400499 0.25769499 0.22102401
0.19364201 0.22381499 -0.0148375
0.16356 0.259101 0.032864001
0.029299499 0.326873 0.087544002
-0.042427398 0.380014 0.157719
0.30515799 0.208298 0.053183999
0.17289899 0.23617899 -0.010954
0.32150301 0.26581901 0.264364
0.017616101 0.31757301 0.072013997
0.028829999 0.31958899 0.078194
-0.0177291 0.358845 0.12591401
0.324747 0.219596 0.101349
0.053619999 0.29815099 0.047033999
0.14639901 0.26300001 0.033984002
0.30783299 0.24362899 0.16551401
0.044977199 0.33956999 0.097249001
0.222964 0.200463 -0.0080230199
0.055667501 0.33413699 0.094039001
0.34842601 0.21409699 0.080479003
0.214794 0.233404 0.0094039701
0.178013 0.263809 0.034178998
0.24250101 0.191355 0.010084
0.175079 0.254361 0.028519001
0.33094001 0.23784199 0.177899
0.162651 0.25142601 0.024114
0.22825 0.180231 -0.00181903
0.34918001 0.234181 0.15197399
0.112808 0.26894099 0.013604
0.299162 0.25764999 0.175899
0.203291 0.238125 0.013854
0.32013899 0.202646 0.055024002
0.35760301 0.221137 0.099769004
0.31311399 0.26363501 0.232724
0.080172502 0.29423901 0.054954
0.30763701 0.30472201 0.343624
0.31457499 0.28662899 0.31479901
0.30990601 0.208574 0.057588998
0.086829498 0.30989799 0.076594003
0.31081399 0.22938301 0.119184
0.209694 0.21176 -0.024104999
0.30011001 0.31946099 0.352584
0.30259201 0.220173 0.076994002
0.20275 0.223635 -0.0053960201
0.141664 0.25624901 0.019414
0.040291201 0.31482399 0.074054003
0.306541 0.239583 0.14572901
0.33610001 0.23853 0.181684
0.30757901 0.282987 0.25980899
0.072531 0.28867799 0.019734001
0.194646 0.25258201 0.023634
0.308846 0.29333401 0.290034
0.119591 0.28704599 0.056694001
0.333166 0.215896 0.090268999
0.33373499 0.233559 0.163674
0.33969399 0.235633 0.166034
0.32588401 0.22362299 0.121164
0.34934399 0.26234499 0.27830899
0.105513 0.273321 0.022859
0.142225 0.27711001 0.048854001
0.316964 0.27255699 0.270354
0.332205 0.22815099 0.144719
0.29683599 0.27601901 0.209764
0.217117 0.210309 -0.012322
0.0582605 0.31855601 0.081713997
0.069273002 0.29271701 0.048154
0.29585099 0.26547301 0.179599
0.31305099 0.27971801 0.27468899
0.322988 0.25062299 0.22006901
0.32747999 0.18678799 0.048204001
0.215444 0.201856 -0.019770499
0.057248499 0.30393201 0.063234001
0.29484701 0.248805 0.106669
0.31722799 0.213976 0.079608999
0.30718201 0.28928801 0.270854
0.30974001 0.26470801 0.22642399
0.29652101 0.20886301 0.042959001
0.298875 0.32528001 0.36376399
0.197603 0.22327501 -0.0092400201
0.063506499 0.29844001 0.055419002
0.35763201 0.214792 0.064534001
0.323549 0.241625 0.187829
0.30152601 0.29238299 0.25603399
0.086894497 0.28273699 0.036258999
0.10756 0.28457999 0.051509
0.132396 0.29052699 0.060274001
0.29476899 0.26157999 0.15985399
0.029494099 0.31316099 0.067258999
0.29973099 0.24841399 0.14321899
-0.024940399 0.342724 0.104809
0.34161299 0.21217801 0.079168998
0.18985 0.25950599 0.028984001
0.33469701 0.220296 0.109479
0.28577599 0.39281401 0.39412901
0.060321499 0.29323101 0.038474001
0.32026699 0.232665 0.149569
