# .PCD v0.7 - Point Cloud Data file format
VERSION 0.7
FIELDS x y z normal_x normal_y normal_z flags rgba
SIZE 4 4 4 4 4 4 4 4
TYPE F F F F F F I U
COUNT 1 1 1 1 1 1 1 1
WIDTH 611
HEIGHT 1
VIEWPOINT 0 0 0 1 0 0 0
POINTS 611
DATA ascii
0.32857099 0.39678299 0.139227 4.1493144 4.3186388 1.8968974 0 4290822336
0.088330999 -0.110952 0.116679 -2.7434723 -5.6470189 -0.20258677 0 4290822336
0.161191 -0.131312 0.154901 1.2805568 -5.8166666 1.9297184 0 4290822336
0.35917601 -0.445463 -0.12488 -0.034617659 -6.0309649 -1.7582933 0 4290822336
0.37476701 -0.445315 -0.12602 0.068264104 -6.0433178 -1.7163491 0 4290822336
0.215121 -0.066935003 0.20720699 2.052283 -3.8123629 4.4500995 0 4290822336
0.115918 -0.45446599 -0.083305001 -0.11314051 -6.0457902 -1.6979989 0 4290822336
0.120123 -0.454889 -0.081915997 -0.049150418 -6.0500793 -1.6916921 0 4290822336
0.063107997 -0.097057 0.110098 -3.2204626 -5.3630176 -0.57234401 0 4290822336
0.129648 -0.454559 -0.083006002 0.020493994 -6.0490665 -1.6989259 0 4290822336
0.12122 -0.124702 0.12696899 -2.239866 -5.8431816 -0.55129462 0 4290822336
0.14491799 -0.454364 -0.084633 -0.15412652 -6.0394988 -1.7020699 0 4290822336
0.14725401 -0.453419 -0.087554999 -0.0024315747 -5.9971428 -1.8716741 0 4290822336
0.156443 -0.452995 -0.088766001 -0.051410928 -5.9932618 -1.8675702 0 4290822336
0.192214 -0.092046 0.18697201 0.98170257 -5.5648804 2.6673386 0 4290822336
0.049439002 -0.087820999 0.098941997 -0.027289867 -5.3321061 2.5948992 0 4290822336
0.137594 -0.13240699 0.137808 -2.0640604 -5.8984571 -0.4425821 0 4290822336
0.141941 -0.13376699 0.138638 -1.6857449 -6.041338 -0.18991882 0 4290822336
0.16414601 -0.132181 0.14941201 1.4594175 -5.8713059 1.6684695 0 4290822336
-0.072480001 -0.35388699 0.117634 0.0022370722 0.22896938 6.277894 0 4290822336
-0.110022 -0.35564899 0.114588 -1.0543113 0.52548832 6.1708851 0 4290822336
-0.17707799 -0.35248399 0.097801998 -1.91765 0.18991838 5.9770265 0 4290822336
0.052875999 -0.088836998 0.098970003 -2.3906932 -5.6415577 0.74451375 0 4290822336
0.151361 -0.13539501 0.140222 -0.35685715 -6.2341814 0.45831597 0 4290822336
0.17135499 -0.12854899 0.15315901 2.4980752 -5.2830563 2.2313933 0 4290822336
0.173204 -0.126553 0.155237 2.9602025 -4.8615246 2.6021843 0 4290822336
0.18032899 -0.10209 0.17481101 3.56709 -3.8456728 3.4358079 0 4290822336
0.278786 -0.446816 -0.114705 -0.26089644 -6.0306849 -1.7406547 0 4290822336
0.28746 -0.44764999 -0.112993 -0.14746764 -6.0402904 -1.7226304 0 4290822336
0.293513 -0.44735399 -0.114524 -0.20112354 -6.0335722 -1.7408729 0 4290822336
0.051369999 -0.089372002 0.095899999 0.3107467 -4.9967494 3.0657456 0 4290822336
0.056231 -0.090823002 0.099114001 -3.3252409 -5.2879004 -0.59067476 0 4290822336
0.12813599 -0.127443 0.127636 -2.2021327 -5.8356781 -0.75166738 0 4290822336
0.337594 -0.44504401 -0.125782 -0.035111632 -6.0292482 -1.7623149 0 4290822336
0.19542199 -0.092673004 0.183901 1.3034 -5.7120867 2.1881597 0 4290822336
0.230957 -0.15926801 -0.027970999 -0.035775244 2.5804007 5.7281089 0 4290822336
0.212414 -0.070010997 0.20475499 0.69909406 -5.1412768 3.345242 0 4290822336
0.041816 -0.094816998 0.095905997 2.1538424 -3.9015765 4.4241633 0 4290822336
0.018007001 -0.35501501 0.113177 -0.29872268 0.2033715 6.2718868 0 4290822336
0.071809001 -0.101833 0.106908 -3.0871341 -5.4464407 -0.49294561 0 4290822336
0.14619499 -0.134835 0.138947 -1.1379607 -6.1562343 0.057187799 0 4290822336
0.105739 -0.45461401 -0.081625998 -0.063191533 -6.0602551 -1.651085 0 4290822336
-0.034777001 -0.35716999 0.115261 0.71476954 -0.32115379 6.2334719 0 4290822336
0.31295201 0.299301 0.31980199 3.7282171 1.4812822 4.8237376 0 4290822336
0.165543 -0.12973 0.155966 1.8933663 -5.545558 2.1935658 0 4290822336
0.199709 -0.089755997 0.187584 2.2874227 -4.8702383 2.9941211 0 4290822336
0.216188 -0.069610998 0.20407601 1.569167 -4.6425424 3.7777009 0 4290822336
0.055411998 -0.090155996 0.095666997 -1.7047344 -5.5948191 1.1677055 0 4290822336
0.158384 -0.13299599 0.150591 0.87448847 -6.0136704 1.567735 0 4290822336
0.15688799 -0.451574 -0.093956001 -0.033168066 -6.0450716 -1.7125015 0 4290822336
0.18205 -0.099845998 0.17594901 3.0991237 -4.5150976 3.0591502 0 4290822336
0.186359 -0.098173 0.174412 2.6034641 -5.1001935 2.5291662 0 4290822336
0.186783 -0.096417002 0.178321 1.8759422 -5.5060568 2.3629067 0 4290822336
0.18812899 -0.45002899 -0.099569999 0.15357797 -6.077848 -1.5790192 0 4290822336
0.052097 -0.094323002 0.090843 2.2907584 -3.8309429 4.4166913 0 4290822336
0.19362 -0.450515 -0.096784003 -0.093600228 -6.0321679 -1.7088096 0 4290822336
0.052269999 -0.091300003 0.093434997 1.3038343 -4.565124 3.8671322 0 4290822336
0.098673001 -0.36088899 0.108139 1.5655508 0.96763396 6.0073619 0 4290822336
0.104717 -0.118072 0.119955 -2.1768622 -5.882637 -0.34563524 0 4290822336
0.24821401 -0.44699001 -0.112779 -0.11593619 -6.0007834 -1.8327471 0 4290822336
0.096473999 -0.114072 0.106219 -2.3042843 -5.8235054 -0.4362188 0 4290822336
0.104249 -0.117317 0.111328 -2.0452163 -5.9153557 -0.51450765 0 4290822336
0.15101001 -0.13551199 0.134544 -0.69160849 -6.2303586 -0.025069674 0 4290822336
0.29092401 -0.44654101 -0.116821 -0.11593921 -6.0406437 -1.6995444 0 4290822336
0.15658601 -0.134498 0.14534301 0.54952008 -6.1169958 1.2623631 0 4290822336
0.17757501 -0.121966 0.157663 3.6229525 -4.2127266 2.8715122 0 4290822336
0.192028 -0.097101003 0.171087 2.0898077 -5.5985427 1.9143151 0 4290822336
-0.059055001 -0.35814101 0.117269 0.37250674 0.0064205555 6.2716136 0 4290822336
0.065823004 -0.097511001 0.100895 -3.3163037 -5.2590036 -0.87260336 0 4290822336
0.32826301 -0.44474399 -0.12632599 -0.11574241 -6.0554819 -1.6679386 0 4290822336
0.083016001 -0.108024 0.109807 -2.8517616 -5.5866394 -0.31561628 0 4290822336
0.13193899 -0.128213 0.123427 -2.0267286 -5.8568959 -1.0190786 0 4290822336
0.146617 -0.13470399 0.132661 -1.4760752 -6.0583115 -0.51685995 0 4290822336
0.36879 -0.444958 -0.12737399 -0.034582153 -6.0362186 -1.7406372 0 4290822336
0.16951799 -0.13074 0.149029 1.9541507 -5.6833611 1.7893217 0 4290822336
-0.207091 -0.35153899 0.087180004 -2.2968211 -0.3088696 5.8393693 0 4290822336
0.097262003 -0.45433301 -0.082581997 -0.07465677 -6.0398407 -1.7290854 0 4290822336
0.218274 -0.073342003 0.197649 0.69458604 -5.4605484 2.8786237 0 4290822336
0.136977 -0.131348 0.13181999 -2.1408777 -5.8461432 -0.84383976 0 4290822336
0.179242 -0.116531 0.16234601 4.0516663 -3.5707319 3.1860042 0 4290822336
0.060688999 -0.092998996 0.095315002 -3.1906052 -5.338563 -0.83248436 0 4290822336
0.076502003 -0.10393 0.10062 -3.056107 -5.4482827 -0.59590173 0 4290822336
0.19132 -0.095559999 0.177123 1.4124165 -5.8541512 1.7745988 0 4290822336
0.19892401 -0.092564002 0.18176199 1.6389729 -5.6819849 2.0190406 0 4290822336
0.206122 -0.086989999 0.18436199 4.1724339 -3.2447557 3.2918692 0 4290822336
0.22126 -0.071776003 0.19886699 1.9036388 -4.7105756 3.5958614 0 4290822336
0.167656 -0.45194501 -0.092692003 0.02495156 -6.037045 -1.740622 0 4290822336
0.055681001 -0.091916002 0.091355003 0.71382689 -5.0249076 3.1533628 0 4290822336
0.090136997 -0.111274 0.105983 -2.6710029 -5.6716924 -0.37835333 0 4290822336
0.138779 -0.131089 0.12582 -2.0038724 -5.8460026 -1.1027256 0 4290822336
0.165087 -0.135198 0.13471501 0.97072852 -6.1537342 0.59559792 0 4290822336
0.177076 -0.12835801 0.14599501 3.102304 -5.1156545 1.8126035 0 4290822336
0.219377 -0.44845 -0.102725 2.3544607 -5.7301574 -0.53805864 0 4290822336
-0.011721 -0.35896099 0.11273 0.25078592 -0.41248304 6.2624502 0 4290822336
0.24454699 -0.448973 -0.10571 -0.5314163 -6.0833635 -1.2631923 0 4290822336
0.179901 -0.122833 0.153089 3.8095412 -4.2744255 2.5478976 0 4290822336
0.075199999 0.193829 0.316295 -3.1942282 -2.3482397 4.8536048 0 4290822336
0.120191 -0.122674 0.113891 -1.9143674 -5.9136844 -0.90967906 0 4290822336
-0.183367 -0.34731001 0.095527999 -1.9107032 0.29164663 5.977582 0 4290822336
0.192553 -0.099219002 0.165121 2.9620423 -4.9519892 2.416549 0 4290822336
0.057822 -0.36253199 0.114468 0.21480276 0.63195658 6.2465634 0 4290822336
0.29877001 -0.446742 -0.117196 -0.20523357 -6.051609 -1.6754 0 4290822336
0.001662 -0.35244399 0.112751 0.10295224 -0.053077109 6.2811694 0 4290822336
0.06072 -0.092603996 0.09155 -2.0499275 -5.7300944 0.56701052 0 4290822336
0.30253199 -0.44531599 -0.123014 -0.12509197 -6.0483074 -1.6926146 0 4290822336
0.15798301 -0.13595299 0.13102999 0.040245205 -6.2632804 0.19192195 0 4290822336
0.163856 -0.134462 0.141224 1.1380707 -6.0175848 1.2150494 0 4290822336
0.01531 -0.410687 -0.232886 -0.18941897 -6.0715709 -1.5976708 0 4290822336
0.17389999 -0.130344 0.145037 2.4561772 -5.5202627 1.582427 0 4290822336
0.178068 -0.125963 0.150168 3.4300683 -4.7077184 2.2553532 0 4290822336
0.198312 -0.093897 0.177451 1.3830034 -5.9373236 1.5061007 0 4290822336
0.204942 -0.089658 0.182643 3.2690034 -4.4203649 2.7883458 0 4290822336
0.22438399 -0.071672 0.19706 2.6410577 -4.3351698 3.5913558 0 4290822336
-0.01684 -0.34862 0.113845 0.58854115 -0.29635829 6.2472658 0 4290822336
0.060114998 0.191531 0.29642901 -4.5775394 -3.177315 2.8977494 0 4290822336
0.064499997 -0.094434001 0.090513997 -2.8866334 -5.4723082 -0.311095 0 4290822336
0.073066004 -0.100766 0.093510002 -3.3204923 -5.2507486 -0.92424428 0 4290822336
0.081601001 -0.45386499 -0.082722001 -0.20259458 -6.0524354 -1.6734993 0 4290822336
0.184095 -0.121736 0.147985 4.2967196 -4.0070033 2.0976319 0 4290822336
0.223965 -0.075061999 0.192331 1.6456656 -5.1405725 3.0890326 0 4290822336
-0.201666 -0.348703 0.089373 -2.2202191 -0.0054957159 5.8731003 0 4290822336
0.29856399 -0.35428199 -0.023146 0.62230843 -1.7506869 5.9893923 0 4290822336
0.16339301 -0.44978699 -0.100186 -0.040091548 -6.046906 -1.7054234 0 4290822336
0.160557 -0.13545799 0.13676099 0.48215172 -6.2200012 0.63806295 0 4290822336
0.16860899 -0.132972 0.141912 1.8194889 -5.8400097 1.3959904 0 4290822336
0.182579 -0.119513 0.15411399 4.2129564 -3.7643549 2.7003827 0 4290822336
0.19665401 -0.097770996 0.16370299 2.1595984 -5.5143328 2.0027859 0 4290822336
0.034035999 -0.35689601 0.113955 -0.19339576 0.41582593 6.2658677 0 4290822336
0.0084509999 -0.34834701 0.112606 -0.0043433942 0.22401142 6.2772646 0 4290822336
0.061377 -0.093767002 0.086969003 -0.084644735 -5.2249384 2.4820614 0 4290822336
0.064891003 -0.094667003 0.086101003 -1.5030563 -5.5955548 1.3117604 0 4290822336
0.14872199 -0.134454 0.126537 -1.7448797 -5.937119 -1.0196882 0 4290822336
0.270578 -0.44630301 -0.115615 -0.16284803 -6.0496507 -1.6868408 0 4290822336
0.062020998 -0.096198 0.083626002 1.7448683 -4.4583964 3.8163328 0 4290822336
0.099556997 -0.114614 0.100278 -1.9959276 -5.9180274 -0.66287559 0 4290822336
0.30864099 -0.35510901 -0.025074 1.5623262 -1.23034 5.9426675 0 4290822336
0.12652101 -0.12522601 0.116817 -1.866091 -5.8976545 -1.0968276 0 4290822336
0.115917 -0.36286199 0.103749 1.833156 0.854976 5.9478569 0 4290822336
0.18778799 -0.113858 0.152945 4.6182857 -3.4077599 2.5055413 0 4290822336
0.081096999 -0.105393 0.091986999 -3.0318241 -5.4459829 -0.75073904 0 4290822336
0.086102001 -0.108454 0.096046999 -2.7612536 -5.6085157 -0.59811455 0 4290822336
0.093450002 -0.112349 0.099693 -2.4415569 -5.746305 -0.58247268 0 4290822336
-0.155947 -0.33919001 0.103022 -1.6220558 0.43850601 6.0539117 0 4290822336
-0.149648 -0.154915 0.065825999 -1.3379028 3.1613395 5.249105 0 4290822336
0.204402 -0.091536999 0.179268 2.4812698 -5.3175707 2.1149311 0 4290822336
-0.18759 -0.33983201 0.093749002 -1.9153566 0.37891161 5.9718313 0 4290822336
0.079158999 -0.103625 0.088088997 -3.2212448 -5.303586 -0.96542645 0 4290822336
0.195573 -0.095987998 0.17087901 1.6387769 -5.8570337 1.5395019 0 4290822336
0.228074 -0.075324997 0.189189 2.7605948 -4.5870156 3.1362872 0 4290822336
0.065572001 -0.095859997 0.082870997 -0.18740681 -5.4942913 2.3163118 0 4290822336
0.068141997 -0.096386001 0.085258 -2.8008294 -5.5768962 0.063385099 0 4290822336
0.072035998 -0.098961003 0.087661996 -3.2908192 -5.2830863 -0.82955867 0 4290822336
0.142372 -0.452122 -0.091760002 -0.070917845 -6.0363455 -1.7414184 0 4290822336
0.095149003 -0.112381 0.094393 -2.2717094 -5.8006058 -0.75300455 0 4290822336
0.16312 -0.13572 0.12891001 0.56246895 -6.2456408 0.14079282 0 4290822336
0.16801 -0.134487 0.135317 1.6215733 -5.9847507 0.87581426 0 4290822336
0.15053099 -0.45070499 -0.096960999 -0.016109135 -6.0378971 -1.7380699 0 4290822336
0.171793 -0.13265599 0.13833401 2.1943374 -5.7593317 1.1716313 0 4290822336
0.067259997 -0.098272003 0.078736998 1.5175346 -4.8370094 3.4403436 0 4290822336
0.17239501 -0.450351 -0.098163001 -0.030765045 -6.0617623 -1.6468049 0 4290822336
0.105255 -0.35051 0.1049 1.5695924 0.97200441 6.004735 0 4290822336
0.191558 -0.106121 0.155719 4.5215583 -3.5213256 2.5634842 0 4290822336
0.078166001 -0.35673401 0.111827 0.92917264 0.91687828 6.1416197 0 4290822336
0.051998001 -0.35619301 0.1141 0.17449273 0.64750683 6.2410769 0 4290822336
0.043877002 -0.35551599 0.114063 -0.039214365 0.53985405 6.2585425 0 4290822336
0.20288099 -0.093124002 0.176089 1.7958179 -5.7835507 1.5825157 0 4290822336
0.208831 -0.092107996 0.171589 2.6909657 -5.3134441 1.9411174 0 4290822336
0.23662899 -0.446729 -0.112386 -0.51903319 -6.125421 -1.0749518 0 4290822336
0.240642 -0.44763499 -0.109588 -0.35391188 -6.0643826 -1.5841857 0 4290822336
0.105479 -0.116114 0.097374 -1.7346982 -5.9841914 -0.79172933 0 4290822336
0.157988 -0.135993 0.12564901 -0.27260292 -6.192071 -0.4964475 0 4290822336
0.25564799 -0.444675 -0.120191 -0.10167472 -6.0388684 -1.7286836 0 4290822336
-0.215951 -0.33705199 0.083571002 -2.427495 0.21623871 5.7833414 0 4290822336
0.28886801 -0.44553101 -0.12074 -0.13843195 -6.06915 -1.6177871 0 4290822336
0.203512 -0.094351001 0.16977499 1.4774066 -5.9406738 1.4130683 0 4290822336
0.209722 -0.090071 0.17526899 3.5317566 -4.4812379 2.4656761 0 4290822336
0.178294 -0.12978899 0.138027 2.9446058 -5.371706 1.3314273 0 4290822336
0.310918 -0.445281 -0.123173 -0.051123247 -6.0471077 -1.7036028 0 4290822336
0.078786001 -0.349794 0.110488 1.0326523 1.1732674 6.0842876 0 4290822336
0.32810101 -0.442913 -0.132439 -0.069669351 -6.0439205 -1.7091764 0 4290822336
0.069293 -0.096784003 0.082056999 -1.6404769 -5.6920204 0.7878505 0 4290822336
0.33401799 -0.44358 -0.13073 -0.1015965 -6.0456777 -1.7059838 0 4290822336
-0.055523001 -0.379581 -0.339248 -0.085415803 -6.063992 -1.63255 0 4290822336
0.192736 -0.102382 0.159421 3.7522945 -4.3054876 2.5851078 0 4290822336
0.228553 -0.078201003 0.183745 1.755203 -5.4400244 2.1792364 0 4290822336
0.088086002 -0.35607499 0.110011 1.2253573 1.0261798 6.0701714 0 4290822336
0.172491 -0.133944 0.12956201 1.9060336 -5.9177656 0.57147139 0 4290822336
0.19655199 -0.099880002 0.158921 2.8761773 -5.0991907 2.2197762 0 4290822336
0.20028 -0.097553998 0.160799 1.9491456 -5.6622343 1.8639842 0 4290822336
-0.117566 -0.386473 -0.31057999 -0.078781158 -6.0548429 -1.6759588 0 4290822336
0.21330699 -0.40553799 -0.26295999 -0.02137647 -6.0396199 -1.7136444 0 4290822336
0.205441 -0.404248 -0.26836699 -0.013769301 -6.0891776 -1.5462365 0 4290822336
0.13243601 -0.45252201 -0.090232998 -0.0058503002 -6.0444818 -1.7149819 0 4290822336
0.17897201 -0.13087501 0.132229 2.9527678 -5.3879838 0.99015749 0 4290822336
0.095574997 0.176376 0.316587 -2.2494969 -4.5590143 3.5143173 0 4290822336
0.2079 -0.093532003 0.16836999 2.0287821 -5.6938047 1.6646919 0 4290822336
-0.044406001 0.20127399 0.226321 -4.0830736 -4.6483078 0.85358882 0 4290822336
0.17682 -0.448908 -0.104096 0.031558316 -6.0462179 -1.6929965 0 4290822336
0.168321 -0.13513599 0.125926 1.1285878 -6.1585975 0.14481339 0 4290822336
0.180921 -0.44985399 -0.10031 0.01092957 -6.0717068 -1.6154767 0 4290822336
0.180932 -0.126947 0.14242899 3.6907837 -4.7758951 1.5937176 0 4290822336
0.199674 -0.10096 0.15185601 2.8620534 -5.2345476 1.9084299 0 4290822336
0.198468 -0.449022 -0.103586 -0.26191434 -6.0652933 -1.6152891 0 4290822336
0.092302002 -0.109291 0.081196003 -2.3804517 -5.703896 -1.0692014 0 4290822336
0.17639001 -0.132557 0.12836 2.4898968 -5.7167649 0.45023963 0 4290822336
0.185977 -0.122647 0.14137401 4.4541659 -4.0832729 1.6047113 0 4290822336
0.23343299 -0.44659001 -0.112646 -0.84848458 -5.9698758 0.023996145 0 4290822336
0.19705699 -0.103416 0.150232 3.8239226 -4.4951143 2.0999393 0 4290822336
0.213395 -0.092059001 0.16553099 3.0068865 -5.107657 1.9151148 0 4290822336
0.26370701 -0.44643399 -0.114779 -0.098117411 -6.0384831 -1.7323201 0 4290822336
0.166289 -0.135368 0.121994 0.67994821 -6.2079525 -0.40726396 0 4290822336
-0.19707499 -0.343463 0.090894997 -2.0589921 0.29443413 5.9263587 0 4290822336
0.1948 -0.106533 0.14880601 4.5529842 -3.7335782 2.1610739 0 4290822336
0.296514 -0.44520301 -0.122645 -0.19668894 -6.0491352 -1.6868252 0 4290822336
0.185265 -0.12652899 0.13141599 4.132144 -4.5420103 1.1391114 0 4290822336
0.216454 -0.081101 0.170123 5.7147193 -0.70942837 2.429749 0 4290822336
0.061696 -0.355122 0.113472 0.46317065 0.83471441 6.2055154 0 4290822336
0.364351 0.21022899 0.30051801 4.8775625 -0.32599711 3.9078927 0 4290822336
0.31662801 -0.44447801 -0.126636 -0.093736842 -6.0858164 -1.5579412 0 4290822336
0.19115999 -0.115095 0.143261 4.8799343 -3.5077882 1.7845367 0 4290822336
0.046174999 -0.34948599 0.11344 0.13102925 0.82850933 6.222465 0 4290822336
0.205406 -0.097291 0.156112 1.9523708 -5.7647119 1.5357294 0 4290822336
0.208619 -0.094714001 0.163408 1.8165419 -5.8009591 1.5330695 0 4290822336
0.031780999 -0.34503099 0.113009 -0.028990937 0.70398438 6.2372422 0 4290822336
0.33990401 -0.44294399 -0.1336 -0.095527031 -6.0583153 -1.6506144 0 4290822336
0.35075 -0.44356301 -0.131547 -0.043797083 -6.0374861 -1.7388811 0 4290822336
0.190272 -0.119035 0.13689101 4.8838024 -3.6930602 1.3576598 0 4290822336
0.198504 -0.103652 0.146705 3.8155088 -4.6218443 1.7475299 0 4290822336
0.204395 -0.099817 0.147939 2.6853857 -5.5240288 1.2726259 0 4290822336
0.36283401 -0.442752 -0.134711 -0.080295533 -6.0458922 -1.7081077 0 4290822336
0.37301099 -0.44339499 -0.132557 0.023939457 -6.0526886 -1.6828276 0 4290822336
-0.062780999 -0.37912101 -0.340462 -0.1432011 -6.0615911 -1.6414729 0 4290822336
0.20244101 -0.101862 0.143517 3.3040032 -5.223382 1.086242 0 4290822336
0.074339002 -0.454005 -0.081514001 -0.21592459 -6.0733891 -1.5769423 0 4290822336
0.23469301 -0.078973003 0.17294399 1.7913308 -5.8823047 0.78485107 0 4290822336
0.088775001 -0.45339799 -0.085017003 -0.15916704 -6.0444775 -1.7038096 0 4290822336
0.186014 -0.127285 0.122457 3.8255534 -4.9170222 0.2105881 0 4290822336
0.182842 -0.128544 0.131292 3.458848 -4.6651602 1.8364089 0 4290822336
0.111029 -0.45344299 -0.086416997 -0.10900568 -6.0425968 -1.7172402 0 4290822336
0.196146 -0.110442 0.13710999 4.9857864 -3.5855751 1.315365 0 4290822336
0.171564 -0.13446601 0.121151 1.6153567 -5.9889131 -0.35989958 0 4290822336
0.18956099 -0.12297 0.12755699 4.7169967 -3.9845266 1.0267203 0 4290822336
0.173353 -0.13330001 0.115793 1.7925646 -5.8693056 -1.0272683 0 4290822336
-0.114573 -0.163103 0.077812999 -0.76170516 3.2417986 5.325707 0 4290822336
-0.14665 -0.34248999 0.105671 -1.4922051 0.50153929 6.082046 0 4290822336
-0.39144799 -0.425271 -0.15298299 -0.093126908 -6.0281754 -1.738261 0 4290822336
0.217492 -0.080092996 0.167199 5.2402349 -1.3809478 2.2524762 0 4290822336
0.19326 -0.448764 -0.103288 -0.013918359 -6.0766306 -1.5430955 0 4290822336
0.182449 -0.129695 0.123102 3.2330804 -5.3352833 0.033688888 0 4290822336
-0.377758 -0.42402399 -0.15887 -0.12626013 -6.0481653 -1.6956137 0 4290822336
0.195867 -0.108377 0.142646 4.8041611 -3.6653376 1.6964878 0 4290822336
-0.107964 -0.167301 0.081234999 -0.63889462 3.0745492 5.4311638 0 4290822336
0.207977 -0.44914401 -0.104057 -0.088440403 -6.0557899 -1.6692817 0 4290822336
0.213283 -0.095247999 0.153763 2.4328005 -5.6662998 1.0725092 0 4290822336
0.113761 -0.35339499 0.10306 1.749046 0.91858625 5.9615326 0 4290822336
0.088399 -0.34859601 0.108484 1.2636907 1.2573026 6.0219274 0 4290822336
0.058242001 0.18008 0.28084299 -3.7650788 -1.8046727 4.6467786 0 4290822336
0.232124 -0.445815 -0.116074 -0.13803326 -6.1276178 -1.3154631 0 4290822336
0.217511 -0.091499001 0.158994 3.8732677 -4.5963945 1.6829753 0 4290822336
0.198974 -0.106355 0.138432 4.4996338 -4.1615739 1.3250744 0 4290822336
0.26909 -0.44351199 -0.124647 -0.19640377 -6.0452533 -1.6677983 0 4290822336
0.200019 -0.103778 0.14290699 3.8126805 -4.7334495 1.5723028 0 4290822336
0.20827299 -0.098761998 0.14307401 2.8802044 -5.5493979 0.5357008 0 4290822336
-0.042075999 -0.348122 0.116115 0.44813758 0.048089363 6.2661676 0 4290822336
0.155104 -0.40717301 -0.25432801 -0.079075083 -6.0509043 -1.6901578 0 4290822336
0.21568801 -0.093390003 0.156984 3.0617237 -5.2667465 1.3765935 0 4290822336
-0.05762 -0.34394199 0.117063 0.30875292 0.18200965 6.2699194 0 4290822336
-0.079747997 -0.346232 0.117147 -0.2651965 0.36640948 6.2649183 0 4290822336
0.178675 -0.131704 0.12187 2.6822927 -5.6366944 -0.21060351 0 4290822336
0.075516 0.176625 0.30113399 -3.7289805 -3.7065802 3.3179026 0 4290822336
-0.085919 -0.425201 -0.174133 -0.11003698 -6.0612006 -1.6506779 0 4290822336
0.19369701 -0.115801 0.131853 5.0913758 -3.5020823 1.1330887 0 4290822336
0.218899 -0.079461999 0.164092 5.0463672 -1.6964667 1.8028178 0 4290822336
0.33964199 -0.44383901 -0.12952299 -0.22383592 -6.0580549 -1.5697469 0 4290822336
0.172721 -0.131148 0.107742 1.3607923 -5.7437286 -2.0921369 0 4290822336
0.178573 -0.13096599 0.114523 2.532124 -5.6504669 -0.92368942 0 4290822336
0.18686099 -0.12626199 0.115064 3.7124083 -4.9967942 -0.52400327 0 4290822336
-0.196825 -0.33327499 0.090318002 -1.9583244 0.47451845 5.9499321 0 4290822336
0.050701998 -0.453089 -0.081674002 -0.20872356 -6.0463285 -1.6896508 0 4290822336
0.115344 -0.34478199 0.101153 1.7270491 1.1309018 5.9302025 0 4290822336
0.065967001 -0.45325601 -0.082653999 -0.18424571 -6.0659533 -1.6247787 0 4290822336
0.21995801 -0.078427002 0.16139901 3.9069438 -2.545162 1.3206787 0 4290822336
0.17433099 -0.132038 0.111943 1.8183 -5.7801132 -1.5709952 0 4290822336
0.21833199 -0.093220003 0.150554 3.4703407 -5.0924659 0.70760536 0 4290822336
0.223406 -0.077422999 0.153367 4.6658049 -2.2240553 0.88219023 0 4290822336
0.20444299 -0.101454 0.13848799 3.647891 -5.0365858 0.74484801 0 4290822336
0.127313 -0.40917301 -0.24626701 -0.025015477 -6.04948 -1.6947712 0 4290822336
0.193096 -0.11846 0.126315 5.0973563 -3.5211065 1.0204896 0 4290822336
0.131859 -0.449954 -0.099082001 -0.0057578352 -6.039732 -1.7313699 0 4290822336
0.20432401 -0.102749 0.130629 4.2712474 -4.5448575 0.67922992 0 4290822336
0.180677 -0.129006 0.109706 2.5316136 -5.5355091 -1.4590926 0 4290822336
0.215674 -0.094973996 0.14753699 2.9057169 -5.5240364 0.37254643 0 4290822336
0.21996699 -0.091476001 0.152694 4.1999884 -4.4355574 1.1180271 0 4290822336
0.18349101 -0.44800401 -0.107462 -0.18185355 -6.0491652 -1.6739981 0 4290822336
-0.021232 -0.346407 0.114434 0.63847631 -0.15289266 6.2429752 0 4290822336
0.191991 -0.12136 0.120818 4.9050694 -3.8571162 0.5281564 0 4290822336
0.199784 -0.108326 0.127345 4.8665018 -3.8346004 0.97851777 0 4290822336
0.20315801 -0.44821599 -0.106897 -0.11153442 -6.0686512 -1.6211927 0 4290822336
0.22063001 -0.44717801 -0.110041 1.3484917 -5.9451752 -0.97276038 0 4290822336
0.222923 -0.44626001 -0.113904 0.66657335 -6.133337 -0.68598378 0 4290822336
0.22161999 -0.090797998 0.14597499 4.3899722 -4.4136596 0.2469818 0 4290822336
-0.15664899 -0.426534 -0.16520301 -0.14329171 -6.066958 -1.6264805 0 4290822336
0.074533999 0.17156699 0.291022 -3.5814028 -3.6978471 3.5366173 0 4290822336
0.183139 -0.128424 0.112907 3.1292937 -5.3470831 -0.82246327 0 4290822336
0.18951 -0.124272 0.121416 4.4257903 -4.3651628 0.31961894 0 4290822336
0.21893799 -0.093056999 0.142544 3.6594336 -5.0466013 -0.15589207 0 4290822336
0.129962 -0.34808701 0.096919 2.0760524 0.88824975 5.8608994 0 4290822336
0.183559 -0.12533399 0.10259 2.6927104 -5.2894683 -1.9576167 0 4290822336
0.208754 -0.098893002 0.133013 3.7139738 -5.0550146 0.15339729 0 4290822336
0.17180499 -0.127425 0.098050997 1.0919909 -5.6675272 -2.4436719 0 4290822336
0.19031399 -0.123003 0.111919 4.1703162 -4.6300502 -0.59003365 0 4290822336
0.317826 -0.44264099 -0.134064 -0.071699798 -6.0452995 -1.6864666 0 4290822336
0.21137799 -0.097237997 0.136152 3.2660155 -5.3620367 -0.10640652 0 4290822336
0.16473 -0.125478 0.091810003 0.27979794 -5.7481413 -2.5077319 0 4290822336
0.17798799 -0.128932 0.105938 2.0043392 -5.5765219 -2.0141804 0 4290822336
0.193858 -0.119427 0.111494 4.6117945 -4.2260723 -0.28001606 0 4290822336
0.19549499 -0.117348 0.115381 4.8992381 -3.9140673 0.31465694 0 4290822336
0.21860801 -0.092909999 0.137943 3.6726625 -5.0417743 -0.54802591 0 4290822336
0.026064999 0.17606699 0.280377 -4.4593968 -3.7499564 2.1284952 0 4290822336
0.22318099 -0.089024998 0.139713 4.6977863 -4.0701275 -0.34831953 0 4290822336
0.225944 -0.072669998 0.143828 4.932292 -2.2978561 0.3405357 0 4290822336
0.170277 -0.39098999 -0.315391 0.10704029 -5.8988523 -2.0073555 0 4290822336
0.137123 -0.353535 0.094961002 2.2064383 0.72930992 5.8374939 0 4290822336
0.18483201 -0.126404 0.108147 3.2313356 -5.1809235 -1.310796 0 4290822336
0.106387 -0.45208099 -0.090836003 -0.080295421 -6.0369358 -1.7397996 0 4290822336
0.118234 -0.45261601 -0.089483 -0.075847939 -6.0307465 -1.760691 0 4290822336
0.19433101 -0.118166 0.106141 4.3692846 -4.4105501 -0.8362838 0 4290822336
0.14218099 -0.44934401 -0.101606 -0.034010239 -6.0327177 -1.7548044 0 4290822336
0.049945001 -0.34185901 0.112048 0.33598521 1.2343441 6.1455307 0 4290822336
0.204996 -0.10305 0.123264 4.6633954 -4.1457253 0.636621 0 4290822336
-0.067209996 -0.340718 0.117208 -0.01433789 0.33796427 6.2681441 0 4290822336
0.188913 -0.123346 0.107549 3.8079376 -4.8362899 -1.1506706 0 4290822336
0.197373 -0.44727799 -0.110186 -0.10769377 -6.0641494 -1.6338967 0 4290822336
0.20602299 -0.446796 -0.112839 -0.04695902 -6.0357103 -1.7104037 0 4290822336
0.21249001 -0.096004002 0.127921 3.9114516 -4.8927784 -0.41029167 0 4290822336
0.35410401 0.332789 0.223259 5.4537201 3.1165836 -0.10328072 0 4290822336
-0.315308 -0.424261 -0.165776 -0.32468992 -6.0417123 -1.6911131 0 4290822336
0.225107 -0.086282998 0.13923 5.3463802 -3.206964 -0.13461488 0 4290822336
0.21657699 -0.44871101 -0.105729 0.70972443 -6.0388269 -1.3287853 0 4290822336
0.167541 -0.12580501 0.093088001 0.71616715 -5.6808739 -2.5685995 0 4290822336
0.237828 -0.44547999 -0.117105 -0.016268082 -6.067749 -1.6296505 0 4290822336
0.201437 -0.109963 0.113141 4.9745731 -3.7782626 0.60765773 0 4290822336
0.208197 -0.099583 0.127708 4.1920447 -4.671689 0.17130914 0 4290822336
0.050618 -0.34750301 0.112981 0.28379923 0.96254385 6.2001314 0 4290822336
0.22104301 -0.090722002 0.136329 4.2242556 -4.537622 -0.77141744 0 4290822336
-0.002786 -0.34543899 0.112877 0.32235309 0.085871346 6.2737741 0 4290822336
0.19919001 -0.113128 0.110023 4.8204656 -4.0089493 0.0070949793 0 4290822336
0.306315 -0.443239 -0.130182 -0.024976218 -6.067039 -1.6204128 0 4290822336
-0.010392 -0.34887901 0.113309 0.39367622 -0.18185258 6.2661595 0 4290822336
0.16409799 -0.122476 0.085065998 0.57033497 -5.734004 -2.5016015 0 4290822336
0.18959101 -0.120745 0.100331 3.6219945 -4.8431787 -1.6120342 0 4290822336
0.16813099 -0.121617 0.084291004 1.0013667 -5.6204133 -2.6146309 0 4290822336
0.225951 -0.083843 0.131652 5.1900411 -3.3299465 -0.87770432 0 4290822336
0.183312 -0.122883 0.096409999 2.4703622 -5.2512293 -2.3566942 0 4290822336
0.089800999 -0.41052499 -0.239471 -0.12761959 -6.0434012 -1.7144331 0 4290822336
0.22228999 -0.087746002 0.12893701 4.566721 -4.0970511 -1.1830953 0 4290822336
0.18742 -0.121207 0.097689003 3.0848153 -5.0279646 -2.109293 0 4290822336
0.37148699 -0.441733 -0.139138 -0.054365925 -6.0557804 -1.6627917 0 4290822336
0.180571 -0.122887 0.093810998 2.1354389 -5.3224831 -2.5111239 0 4290822336
0.20923901 -0.098761 0.118973 4.7443295 -4.0914292 0.35362133 0 4290822336
0.060587 -0.45283499 -0.084085003 -0.10440434 -6.0658722 -1.6274172 0 4290822336
-0.29757899 -0.42503899 -0.164281 -0.058813859 -6.0569482 -1.6691368 0 4290822336
0.172189 -0.122433 0.087788999 1.3019534 -5.5264397 -2.6825352 0 4290822336
0.102088 -0.38848001 -0.31841001 -0.05755306 -6.0324078 -1.7557406 0 4290822336
0.088577002 -0.45169801 -0.091463 -0.13459025 -6.0387211 -1.7218965 0 4290822336
0.195784 -0.114959 0.098621003 4.1072335 -4.524713 -1.3862025 0 4290822336
0.21315099 -0.094269998 0.11548 4.8635044 -3.9608617 -0.0085087419 0 4290822336
0.191218 -0.117011 0.093870997 3.4840658 -4.7447295 -2.1118188 0 4290822336
0.207453 -0.102559 0.109009 4.9809184 -3.801908 0.424972 0 4290822336
0.176024 -0.120587 0.086236 1.7393405 -5.4036722 -2.6848731 0 4290822336
0.200747 -0.110794 0.101799 4.5682034 -4.2363553 -0.64815241 0 4290822336
0.180361 -0.118522 0.085392997 2.2171702 -5.2854056 -2.5679731 0 4290822336
0.187031 -0.117513 0.089603998 2.8087869 -5.0073862 -2.5283809 0 4290822336
0.21751 -0.088614002 0.114079 5.050746 -3.6936438 -0.53170669 0 4290822336
0.219972 -0.087743998 0.121824 4.7358356 -3.8295555 -1.5440012 0 4290822336
0.224463 -0.083442003 0.125085 4.9902601 -3.4983881 -1.4764678 0 4290822336
0.22525001 -0.44558099 -0.116734 0.12434951 -6.1445522 -1.2489247 0 4290822336
0.21360201 -0.093938999 0.10977 5.1435041 -3.6000786 0.20090041 0 4290822336
0.19140901 -0.114261 0.088724002 3.3473408 -4.798193 -2.2757025 0 4290822336
0.28072399 -0.444769 -0.122292 -0.23276433 -6.0625763 -1.6313993 0 4290822336
0.209335 -0.100667 0.101325 4.9795728 -3.8042884 -0.064926922 0 4290822336
0.21156999 -0.097453997 0.105505 5.1539798 -3.5554144 0.18940881 0 4290822336
0.175763 -0.116059 0.076402999 1.6755869 -5.5579467 -2.3958611 0 4290822336
0.201103 -0.10881 0.094994999 4.2697401 -4.3992844 -1.3227015 0 4290822336
0.216904 -0.090521999 0.119363 4.6455207 -4.1106529 -0.93545622 0 4290822336
0.186574 -0.115189 0.084431998 2.7385445 -5.1541481 -2.3148453 0 4290822336
-0.16346399 -0.331496 0.100414 -1.6555595 0.47692293 6.0418329 0 4290822336
0.206183 -0.104189 0.097813003 4.6652493 -4.1442094 -0.59217644 0 4290822336
-0.245233 -0.42081001 -0.18006501 -0.056241859 -6.0384846 -1.7286603 0 4290822336
0.071519002 -0.38560599 -0.32542601 -0.18101971 -6.0423045 -1.711731 0 4290822336
0.289915 -0.34309 -0.019126 -0.1448175 -2.7360995 5.605742 0 4290822336
0.22637101 -0.077053003 0.118168 5.3954043 -2.8560126 -1.4055004 0 4290822336
0.37050301 -0.43948999 -0.146532 -0.038851619 -6.0442567 -1.7129722 0 4290822336
0.218265 -0.087077998 0.110615 5.2142515 -3.4771047 -0.3747378 0 4290822336
0.186802 -0.112056 0.077206001 2.5847995 -5.3887258 -1.9227058 0 4290822336
0.214696 -0.092563003 0.105296 5.2863574 -3.3927169 0.073346838 0 4290822336
0.18139 -0.114289 0.076912999 2.1177051 -5.4748263 -2.232465 0 4290822336
0.070738003 -0.34668401 0.11119 0.8021735 1.2093611 6.1063533 0 4290822336
0.060017001 -0.3479 0.112475 0.49462652 1.0870221 6.1649137 0 4290822336
0.199009 -0.10899 0.090209 3.8768272 -4.6432724 -1.6766436 0 4290822336
-0.055876002 -0.396438 -0.27925 -0.10309783 -6.0521283 -1.6843058 0 4290822336
0.096419998 -0.45198101 -0.090783998 -0.095508344 -6.0458665 -1.7075176 0 4290822336
0.1141 -0.45051399 -0.096600004 -0.076969095 -6.0478487 -1.7007369 0 4290822336
0.220404 -0.083049998 0.099637002 5.3911443 -3.219044 0.099097408 0 4290822336
0.19228899 -0.11081 0.082033999 3.1911108 -5.0813618 -1.8440861 0 4290822336
0.20651001 -0.102617 0.091921002 4.4213614 -4.3531332 -0.93944705 0 4290822336
0.16312 -0.44722101 -0.109251 -0.10648201 -6.0556269 -1.6670614 0 4290822336
0.214718 -0.092820004 0.093763001 5.1219153 -3.5937114 0.44049537 0 4290822336
0.180443 -0.44772899 -0.107788 -0.13379583 -6.0305405 -1.746721 0 4290822336
0.203733 -0.103855 0.086308002 3.9564257 -4.7279334 -1.17869 0 4290822336
0.208768 -0.099584997 0.087679997 4.2970362 -4.5431747 -0.54176289 0 4290822336
0.22322001 -0.078207001 0.104232 5.4943066 -3.041806 -0.091208972 0 4290822336
0.211549 -0.097116001 0.092921004 4.8070493 -4.0265326 -0.20523119 0 4290822336
-0.058394998 -0.33345899 0.116606 0.12205043 0.34721032 6.2713919 0 4290822336
0.19391599 -0.107809 0.075232998 3.0591941 -5.3146586 -1.3541558 0 4290822336
0.20554399 -0.10154 0.082345001 3.7464852 -4.9669528 -0.83361405 0 4290822336
-0.10537 -0.338864 0.113718 -1.0576215 0.66136169 6.1572671 0 4290822336
0.252884 -0.44396099 -0.12256 -0.043410145 -6.0476685 -1.7006392 0 4290822336
0.19764701 -0.106592 0.080045998 3.4822047 -5.0501118 -1.3426052 0 4290822336
0.26050699 -0.443683 -0.124261 -0.10187807 -6.042613 -1.7160134 0 4290822336
0.27488801 -0.444051 -0.124278 -0.31010965 -6.0529213 -1.6535609 0 4290822336
0.286787 -0.44385901 -0.127 -0.18011932 -6.0445089 -1.6888124 0 4290822336
0.219171 -0.085399002 0.095776998 5.2300978 -3.3504715 0.73345912 0 4290822336
0.29552701 -0.44315499 -0.129629 -0.22336073 -6.0529494 -1.6613631 0 4290822336
0.226933 -0.071285002 0.104263 5.3868918 -3.1663597 0.15944058 0 4290822336
0.30629399 -0.44231299 -0.134077 -0.046798483 -6.0824156 -1.5669767 0 4290822336
0.198623 -0.10425 0.071915001 3.1269362 -5.369493 -0.90022469 0 4290822336
0.31278801 -0.44163701 -0.136858 -0.13251849 -6.0317435 -1.7528657 0 4290822336
0.22313499 -0.078643002 0.098843001 5.3138494 -3.2840228 0.58059055 0 4290822336
0.32708901 -0.44058999 -0.140835 -0.086302303 -6.0475125 -1.7006247 0 4290822336
0.210586 -0.097618997 0.082819998 3.7979746 -4.9894819 -0.0014512129 0 4290822336
0.212751 -0.095701002 0.087590002 4.3269253 -4.5436077 0.081545465 0 4290822336
0.22423001 -0.077927001 0.095390998 5.0393047 -3.3548055 1.5747788 0 4290822336
0.351717 -0.44091201 -0.14058501 -0.094992384 -6.0446491 -1.7104256 0 4290822336
0.220385 -0.084780999 0.092478998 4.8054771 -3.5914371 1.7294748 0 4290822336
0.062286999 -0.38454801 -0.32846299 -0.14226195 -6.0966978 -1.5118272 0 4290822336
0.21499 -0.094301 0.083218001 3.7569406 -4.956408 0.83575189 0 4290822336
0.21534801 -0.093052 0.087514997 4.4432082 -4.3212242 0.89316612 0 4290822336
0.226257 -0.073766999 0.098440997 5.1588812 -3.3855286 1.1292655 0 4290822336
-0.204234 -0.33431199 0.087857999 -2.1182067 0.32571989 5.904439 0 4290822336
0.040617999 -0.452869 -0.081560999 -0.1269234 -6.0507445 -1.6859505 0 4290822336
0.21898399 -0.091048002 0.083939001 3.6454115 -4.8022752 1.7306993 0 4290822336
0.21780001 -0.090121999 0.088436 4.4821024 -3.9995813 1.7126012 0 4290822336
0.057787001 -0.45030001 -0.092537999 -0.097862862 -6.0436583 -1.712651 0 4290822336
0.221891 -0.085215002 0.089187004 4.080112 -3.7650564 2.9116497 0 4290822336
0.228453 -0.071827002 0.095523998 4.7671843 -3.5669794 1.9271711 0 4290822336
0.22516701 -0.078253001 0.092664003 4.4713287 -3.4284539 2.6698437 0 4290822336
0.206976 -0.099941 0.077761002 3.2879472 -5.330162 -0.40816063 0 4290822336
0.213165 -0.096343003 0.076880999 3.1530023 -5.4151411 0.30377465 0 4290822336
0.22413599 -0.088933997 0.080793999 3.0707545 -5.0738859 2.033905 0 4290822336
-0.16055401 -0.41802499 -0.1952 -0.12859744 -6.022388 -1.7573729 0 4290822336
0.230753 -0.070207998 0.093395002 3.9967275 -3.5762367 3.003973 0 4290822336
0.221817 -0.090921 0.078819998 3.0286312 -5.3176932 1.4043173 0 4290822336
0.124433 -0.44996899 -0.099221997 -0.033310793 -6.0400548 -1.728394 0 4290822336
0.22261 -0.087863997 0.084674001 3.4666007 -4.4300809 2.7716446 0 4290822336
0.22539601 -0.084536999 0.086212002 3.2511487 -3.936929 3.6417744 0 4290822336
0.218392 -0.092993997 0.078482002 3.2147508 -5.2764921 1.1199831 0 4290822336
0.203779 -0.100909 0.067887001 2.9116855 -5.5421648 -0.51506549 0 4290822336
0.209783 -0.098059997 0.070550002 2.821295 -5.6071224 -0.24590701 0 4290822336
0.155423 -0.447689 -0.107364 -0.025944844 -6.0429926 -1.7200193 0 4290822336
0.220485 -0.092428997 0.074940003 2.9525239 -5.4972663 0.65736961 0 4290822336
0.014798 -0.33374399 0.111759 0.1556727 0.4700166 6.2625747 0 4290822336
0.237914 -0.065573998 0.092471004 1.7742774 -4.3499603 3.8901939 0 4290822336
0.17361701 -0.44642299 -0.11216 -0.027913067 -6.0465436 -1.7034103 0 4290822336
0.219099 -0.093498997 0.067837 2.818867 -5.6074691 -0.064788982 0 4290822336
0.183292 -0.44630101 -0.113168 -0.12391748 -6.0354128 -1.7408898 0 4290822336
0.18863299 -0.44689399 -0.111755 -0.028583787 -6.0337873 -1.7304522 0 4290822336
0.22399899 -0.090992004 0.069585003 2.8518424 -5.5914564 0.087961331 0 4290822336
0.231939 -0.084265999 0.080963999 2.9219029 -4.8132582 2.725456 0 4290822336
-0.087047003 -0.33882299 0.116212 -0.52713025 0.50405657 6.236958 0 4290822336
0.27008101 -0.441569 -0.132342 -0.18352872 -6.0389814 -1.7198342 0 4290822336
0.281699 -0.44325 -0.128261 -0.21631072 -6.044117 -1.6997063 0 4290822336
0.234455 -0.084164999 0.077788003 3.0110271 -5.1939816 1.8016306 0 4290822336
-0.14141899 -0.33652899 0.106345 -1.3232857 0.59800577 6.1122403 0 4290822336
0.223147 -0.091151997 0.061693002 2.913183 -5.5051103 -0.66495222 0 4290822336
0.23978999 -0.080099002 0.079894997 2.9223294 -4.9054132 2.5536492 0 4290822336
0.24477001 -0.075042002 0.082988001 2.5985584 -4.4240694 3.5646074 0 4290822336
0.238838 -0.082326002 0.075355999 3.0942459 -5.3017173 1.1833776 0 4290822336
0.244386 -0.078299001 0.078038 2.9747105 -5.0406656 2.175591 0 4290822336
0.343667 -0.440918 -0.140303 -0.017055754 -6.0275407 -1.7726291 0 4290822336
0.24987601 -0.072002999 0.083189003 2.3406568 -4.7200408 3.4036047 0 4290822336
0.25145 -0.069686003 0.085321002 1.6129706 -4.8031087 3.6781299 0 4290822336
0.36121899 -0.44004199 -0.143994 -0.063779786 -6.0350785 -1.7425594 0 4290822336
0.23093501 -0.087385997 0.067606002 3.0623918 -5.4598331 -0.19595121 0 4290822336
0.238573 -0.082833998 0.071912996 3.1514707 -5.4218564 0.27658072 0 4290822336
0.051040001 -0.45061901 -0.091228001 -0.18174401 -6.0445123 -1.7004094 0 4290822336
0.253847 -0.072705999 0.077785999 2.8116693 -5.3202295 1.7699705 0 4290822336
0.251825 -0.072677001 0.080430001 2.6762075 -5.0475459 2.5961306 0 4290822336
-0.029785 -0.41272101 -0.22188801 -0.071518153 -6.0517263 -1.6877205 0 4290822336
-0.021032 -0.338195 0.114439 0.6017344 0.0038855448 6.2531958 0 4290822336
0.24257199 -0.080450997 0.066230997 3.1924372 -5.3869057 -0.40633792 0 4290822336
0.24457701 -0.079406001 0.071757004 3.1776934 -5.3954501 0.27963892 0 4290822336
0.247173 -0.077349 0.075704001 3.1622632 -5.2850771 1.1507945 0 4290822336
0.22413599 -0.089207001 0.054478999 2.9828887 -5.3304181 -1.4021456 0 4290822336
0.1043 -0.45032701 -0.096914999 -0.076113686 -6.0498066 -1.694592 0 4290822336
0.25636899 -0.068609998 0.085052997 1.0331987 -5.6432619 2.5030015 0 4290822336
0.25544801 -0.070329003 0.081743002 2.0721798 -5.4155731 2.3847005 0 4290822336
-0.19744 -0.42838499 -0.15614501 -0.16153367 -6.0204139 -1.7809105 0 4290822336
0.24989 -0.076186001 0.068471 3.2347836 -5.3706942 -0.24818707 0 4290822336
-0.022187 -0.41218799 -0.22381499 -0.022258386 -6.0686798 -1.6239654 0 4290822336
0.260676 -0.069114998 0.080438003 1.6435479 -5.8799982 1.4460765 0 4290822336
0.244886 -0.078322001 0.060377002 3.2267773 -5.301785 -0.92597282 0 4290822336
0.23680601 -0.083186001 0.061105002 3.1291051 -5.377686 -0.85176682 0 4290822336
0.25317201 -0.074072003 0.07339 3.1033914 -5.4124622 0.64544678 0 4290822336
0.25907701 -0.070542999 0.076788001 2.4665275 -5.6620069 0.98221838 0 4290822336
0.168557 -0.449186 -0.102785 -0.072460979 -6.0605502 -1.6483126 0 4290822336
0.263298 -0.068728998 0.077914998 2.125699 -5.8788524 0.46659431 0 4290822336
0.25779399 -0.071635999 0.070280001 3.0091517 -5.5046978 -0.084883444 0 4290822336
0.25441 -0.072956003 0.063793004 3.2388165 -5.3156033 -0.82514721 0 4290822336
0.246429 -0.076167002 0.054905001 3.2074046 -5.1791034 -1.4809911 0 4290822336
0.26345301 -0.068750001 0.072036996 2.7220221 -5.6462212 -0.24141222 0 4290822336
0.246764 -0.073422998 0.047747001 3.1488342 -4.9817743 -2.1363995 0 4290822336
0.139222 -0.343963 0.092954002 2.1557117 0.87869835 5.8333368 0 4290822336
0.252527 -0.070768997 0.050687999 3.3237185 -4.9788947 -1.8906301 0 4290822336
-0.048539001 -0.17093 0.085777998 0.095832571 2.9287715 5.554522 0 4290822336
0.10358 -0.346571 0.104664 1.4601531 1.1851395 5.9898934 0 4290822336
0.26001099 -0.065738998 0.050802 3.2737522 -4.9784484 -1.9869448 0 4290822336
0.100925 -0.337686 0.103242 1.3996773 1.4878395 5.9397378 0 4290822336
0.27009499 -0.060238 0.052848 3.1178756 -5.0048518 -2.1628489 0 4290822336
0.152197 -0.135409 0.12654901 -1.1252441 -6.0849514 -0.73156881 0 4290822336
0.13267601 -0.12620699 0.112573 -1.6708614 -5.9054027 -1.3391023 0 4290822336
0.115436 -0.119675 0.103674 -1.6263865 -5.9969068 -0.92808336 0 4290822336
0.139713 -0.126168 0.105424 -1.4509549 -5.9211063 -1.5114762 0 4290822336
0.152843 -0.13398901 0.11889 -1.5310824 -5.9039564 -1.4363079 0 4290822336
0.123004 -0.120753 0.098660998 -1.4800671 -6.0121651 -1.0649225 0 4290822336
0.15794 -0.13468 0.11732 -0.82960838 -6.0541263 -1.3084388 0 4290822336
0.162633 -0.135279 0.118712 -7.3865056e-05 -6.175065 -0.92906654 0 4290822336
0.109199 -0.116447 0.092403002 -1.5290526 -6.0429568 -0.77559292 0 4290822336
0.163425 -0.133917 0.112316 -0.002004303 -6.0010862 -1.7125411 0 4290822336
0.167207 -0.134405 0.115188 0.74087965 -6.0721078 -1.2403761 0 4290822336
0.169101 -0.13292301 0.110714 0.93966502 -5.8905206 -1.8723583 0 4290822336
0.156177 -0.128603 0.101028 -1.035532 -5.7852359 -2.2121892 0 4290822336
0.160731 -0.132883 0.109441 -0.58727819 -5.8458548 -2.0798552 0 4290822336
0.163757 -0.128359 0.098398 0.023744099 -5.7710247 -2.4609835 0 4290822336
0.166325 -0.131347 0.105621 0.45078221 -5.8009415 -2.3131328 0 4290822336
0.16072001 -0.12797301 0.097896002 -0.49899274 -5.7898769 -2.381032 0 4290822336
0.15644699 -0.123891 0.088215001 -0.24514262 -5.928184 -2.0585055 0 4290822336
-0.182335 -0.32950699 0.094673999 -1.9079199 0.54584253 5.9606652 0 4290822336
0.14701 -0.447503 -0.107805 -0.029287398 -6.0442119 -1.7143521 0 4290822336
0.055530999 -0.33326301 0.109618 0.51851189 1.4922304 6.0801439 0 4290822336
-0.012159 -0.33418 0.113436 0.59449142 0.13654917 6.2529392 0 4290822336
0.191108 -0.445043 -0.117638 -0.028165881 -6.0468364 -1.7002417 0 4290822336
0.15560301 -0.108998 0.19008701 2.662313 -3.737643 4.2493796 0 4290822336
0.151522 -0.108682 0.19252799 1.9825211 -4.0555625 4.3427935 0 4290822336
0.146864 -0.102828 0.199809 1.5819888 -4.08428 4.458622 0 4290822336
0.27738601 -0.442298 -0.131349 -0.22926444 -6.0205913 -1.7635305 0 4290822336
0.30009601 -0.44164601 -0.13647699 -0.16859874 -6.0362988 -1.712525 0 4290822336
0.15551899 -0.098301999 0.19886 2.9136207 -3.4482915 4.3555193 0 4290822336
-0.0072940001 0.26878801 0.281553 -5.0551105 3.1701677 1.9592805 0 4290822336
0.080930002 -0.34056401 0.108194 1.0922852 1.3904545 6.0258155 0 4290822336
0.147983 -0.096812002 0.20454399 2.1077161 -3.6756072 4.5859766 0 4290822336
0.16742 -0.091169998 0.197088 2.0534101 -4.0037675 4.3765049 0 4290822336
0.238196 -0.077082001 0.084937997 2.2468779 -3.816741 4.412549 0 4290822336
-0.36471701 -0.42765701 -0.146594 -0.27418914 -6.032949 -1.7236484 0 4290822336
0.146534 -0.089918002 0.210201 2.2981734 -3.4251366 4.7351103 0 4290822336
0.034557998 -0.45066899 -0.088928998 -0.1588683 -6.0601468 -1.6474572 0 4290822336
0.244991 -0.072035 0.085790001 1.8763905 -3.7838902 4.6102381 0 4290822336
0.219358 -0.082610004 0.164234 5.618144 0.148734 2.6637337 0 4290822336
-0.154111 -0.32704601 0.102554 -1.5307016 0.63481987 6.0570168 0 4290822336
0.23343 -0.075961001 0.087653004 2.3798845 -3.1311922 4.8868847 0 4290822336
0.21773501 -0.083737001 0.167316 5.5766764 -0.49349529 2.7584932 0 4290822336
0.085841998 -0.449736 -0.097759001 -0.19708891 -6.0214572 -1.7832987 0 4290822336
0.15196601 -0.091802001 0.20597599 2.7595451 -3.2363822 4.6118908 0 4290822336
0.238362 -0.068689004 0.089863002 1.8501182 -3.3479724 4.923049 0 4290822336
0.21524701 -0.083512999 0.17245001 5.5983686 -1.0773839 2.5893955 0 4290822336
0.093791001 -0.44922 -0.100589 -0.1212775 -6.0379109 -1.7275782 0 4290822336
0.212712 -0.084117003 0.17693999 4.9525261 -2.5642886 2.8806252 0 4290822336
0.13098501 -0.33860001 0.094904996 1.9786417 1.2161145 5.8340955 0 4290822336
0.164867 -0.086961001 0.201637 1.925548 -3.5713415 4.7753143 0 4290822336
0.154245 -0.085470997 0.208515 3.0081561 -2.8593073 4.7157617 0 4290822336
0.135113 -0.447431 -0.10788 -0.018306199 -6.0356789 -1.745468 0 4290822336
0.197675 -0.088242002 0.190851 2.0500643 -4.4757681 3.8062673 0 4290822336
0.133522 -0.086576 0.217425 0.48392633 -4.7579317 4.0369396 0 4290822336
0.244618 -0.066636004 0.089633003 0.98572433 -4.1162577 4.5516825 0 4290822336
0.17182299 -0.445171 -0.116724 -0.039649405 -6.0573626 -1.6673492 0 4290822336
0.16147999 -0.086322002 0.20366 2.5571222 -3.0832202 4.8319407 0 4290822336
0.37021899 0.21967401 0.29146099 5.1522336 0.089213431 3.5803118 0 4290822336
0.14108901 -0.08783 0.21427 1.7628895 -3.8725533 4.5956664 0 4290822336
0.070046 -0.40898201 -0.243441 -0.15719834 -6.0503521 -1.6871238 0 4290822336
0.207756 -0.44532001 -0.117442 -0.076273538 -6.0281878 -1.7662812 0 4290822336
-0.042378001 0.27147701 0.243881 -5.5783296 2.7971213 0.63006318 0 4290822336
0.24282999 -0.44379199 -0.123389 0.034436144 -6.0611062 -1.6549207 0 4290822336
0.194362 -0.082290001 0.19782799 2.8781433 -2.9172347 4.6881161 0 4290822336
0.147513 -0.084707998 0.213405 2.7850215 -3.2453651 4.5894279 0 4290822336
0.13937999 -0.086038001 0.216511 1.5375223 -4.2280836 4.3631401 0 4290822336
0.25971901 -0.441407 -0.13198 -0.10788599 -6.0540004 -1.6741134 0 4290822336
-0.206921 -0.32822201 0.086634003 -2.144712 0.35622358 5.8788385 0 4290822336
0.168522 -0.085400999 0.20188899 1.0863554 -3.8133373 4.8556066 0 4290822336
0.144639 -0.083581999 0.216125 2.7429411 -3.748785 4.2088571 0 4290822336
0.163884 -0.081864998 0.205466 1.8108239 -3.1742864 5.0924091 0 4290822336
0.250247 -0.41369501 -0.232363 2.5440941 -4.8276024 -2.7168813 0 4290822336
0.190355 -0.079076 0.201676 2.4470708 -2.3066516 5.2257805 0 4290822336
0.045460999 -0.33664599 0.111103 0.36786598 1.3292043 6.1289558 0 4290822336
0.16920801 -0.080130003 0.20527001 1.0344406 -3.1874948 5.3092155 0 4290822336
0.184972 -0.076145001 0.20513 1.7391958 -2.1324358 5.4943647 0 4290822336
0.17151199 -0.074653 0.207743 0.94666922 -2.6381512 5.6197886 0 4290822336
0.31108999 -0.44016001 -0.141847 -0.056970187 -6.0432796 -1.7181824 0 4290822336
0.201772 -0.074239001 0.19252101 4.1246815 -0.63984346 4.5366611 0 4290822336
0.086139001 -0.40819299 -0.24750599 -0.10991339 -6.0552058 -1.6733574 0 4290822336
-0.090719998 -0.42720801 -0.16692699 -0.13620648 -6.0442481 -1.7054969 0 4290822336
0.002603 -0.33932501 0.112407 0.3266778 0.23168698 6.2690592 0 4290822336
0.095174998 -0.40873399 -0.246213 -0.12200081 -6.0503955 -1.6899774 0 4290822336
0.16559701 -0.074821003 0.208929 1.5122026 -2.8621836 5.3789997 0 4290822336
0.356702 -0.44020599 -0.14361501 -0.03882622 -6.0314727 -1.752741 0 4290822336
0.199523 -0.072802998 0.195021 4.3426876 -1.1112149 4.1762543 0 4290822336
0.182309 -0.067107998 0.208171 2.762706 -0.65659285 5.538682 0 4290822336
0.16270199 -0.071666002 0.211679 2.4105549 -2.9430952 4.9769702 0 4290822336
0.19445001 -0.074787997 0.200085 3.9200258 -0.32685649 4.8280544 0 4290822336
0.190117 -0.075290002 0.203036 3.0250521 -1.0694864 5.3113418 0 4290822336
0.019033 -0.45046899 -0.088933997 -0.094870947 -6.059845 -1.6563973 0 4290822336
0.029347001 -0.45067501 -0.088212997 -0.11991836 -6.0500045 -1.6712638 0 4290822336
