# .PCD v0.7 - Point Cloud Data file format
VERSION 0.7
FIELDS x y z normal_x normal_y normal_z flags rgba
SIZE 4 4 4 4 4 4 4 4
TYPE F F F F F F I U
COUNT 1 1 1 1 1 1 1 1
WIDTH 611
HEIGHT 1
VIEWPOINT 0 0 0 1 0 0 0
POINTS 611
DATA ascii
10.145973 -49.691784 -958.70172 -6.148387 -0.25064617 0.099301606 0 4290822336
10.200878 -49.245514 -958.32074 -6.0364723 1.1440458 0.61887741 0 4290822336
10.301246 -50.150951 -958.04169 -5.069922 -2.6716158 1.4527797 0 4290822336
-26.793648 47.851051 -950.43365 -5.137063 -3.4043293 1.07341 0 4290822336
-25.984987 46.447708 -950.22424 -5.7261653 -0.43796945 1.0227176 0 4290822336
10.562651 -50.530704 -958.86908 -3.1810122 -4.9122801 -1.0526757 0 4290822336
10.412506 -50.443455 -958.45551 -4.2182713 -4.0619273 0.44643188 0 4290822336
10.246614 -49.745029 -957.77698 -5.4976153 -0.74568343 1.9501891 0 4290822336
-25.863434 32.337318 -952.19873 -6.0112319 1.4663463 -0.89297438 0 4290822336
-8.8745499 36.399925 -936.3999 1.4585309 -1.1463015 5.9790778 0 4290822336
-9.5702791 36.599789 -936.10571 1.7265097 -2.9231586 5.1834459 0 4290822336
10.609298 -50.075859 -957.38409 -4.6737852 -2.6788154 2.947928 0 4290822336
-10.057419 36.836048 -935.74225 1.8371842 -4.1694837 4.1803861 0 4290822336
10.928676 -50.590153 -957.58289 -4.7408285 -3.8374009 1.2030928 0 4290822336
-18.246992 -46.09354 -951.3764 5.3592181 -1.4270051 2.6948926 0 4290822336
1.471318 -15.621083 -947.4408 4.5797062 -3.285068 1.5411122 0 4290822336
11.072299 -50.711353 -957.16193 -5.5471001 -2.6041579 0.67484903 0 4290822336
-26.936859 47.327999 -948.54248 -5.4163966 -2.1091747 -2.3700168 0 4290822336
25.194294 -44.744034 -964.38104 4.5515018 3.9296246 1.7902954 0 4290822336
11.155575 -50.882507 -956.78687 -5.0740056 -2.710031 0.88554251 0 4290822336
-25.989519 44.23325 -948.74915 -5.8313546 -2.0116267 1.0482252 0 4290822336
12.168564 -51.221062 -956.20343 -0.88072234 -4.737123 3.1833992 0 4290822336
11.955938 -51.322361 -956.77472 -0.9494952 -6.01404 0.13676217 0 4290822336
-22.924322 -42.133415 -949.52783 -3.2652497 0.98663247 5.0617285 0 4290822336
15.30942 -49.11578 -956.19208 -3.9014523 0.1841324 4.8137116 0 4290822336
-26.107941 44.699734 -949.00287 -6.105341 -0.33756745 0.99059153 0 4290822336
15.304018 -51.490929 -956.52783 -1.1150162 -5.8870134 0.31254157 0 4290822336
-26.146397 45.796688 -950.13898 -4.5909247 2.9974608 2.6801372 0 4290822336
15.553003 -51.552376 -956.0741 -2.4074056 -4.6625366 1.4128704 0 4290822336
15.956285 -51.618053 -955.74292 -1.5316637 -4.7010212 1.9372487 0 4290822336
-20.955503 56.474937 -949.4328 1.2517917 5.3818922 2.710006 0 4290822336
-26.833694 47.728771 -949.26404 -5.4737129 -2.5721469 -1.6520427 0 4290822336
16.307863 -50.969524 -955.25232 -2.0711527 -0.82798427 5.650043 0 4290822336
20.341822 -48.436836 -955.6601 -2.3196251 0.22030348 5.6584735 0 4290822336
-31.656473 -19.906679 -1017.4971 -5.843606 -2.2885382 -0.09908548 0 4290822336
-30.45363 -22.748493 -1021.9991 -5.9819703 -1.9014246 -0.049120702 0 4290822336
-28.684114 -41.335934 -957.40295 -4.7711749 3.1586506 -2.5683935 0 4290822336
-29.14349 -39.20359 -956.64832 -4.3980494 -4.3721881 0.25726455 0 4290822336
-27.398705 49.570629 -948.0014 -5.4894328 1.6116334 0.39562231 0 4290822336
-26.277439 46.620388 -951.06757 -5.4457908 0.11759874 2.2680702 0 4290822336
-30.719223 -21.974693 -1019.6879 -5.4444218 -3.0642405 0.53948975 0 4290822336
-30.621519 -21.816198 -1018.1601 -4.657928 -4.1318622 0.75616312 0 4290822336
-25.481932 53.712795 -948.05023 -0.94394958 5.2686467 -2.5859113 0 4290822336
-30.418215 -22.726204 -1020.8655 -5.6710505 -2.6474659 0.49262649 0 4290822336
-24.780687 42.586067 -948.6825 -4.0728889 -4.1912904 2.2563493 0 4290822336
-18.179377 -46.541847 -951.68677 4.3863869 -1.9473407 3.7763073 0 4290822336
-31.796377 -19.180763 -1013.6047 -5.6850896 -2.5518854 0.6764853 0 4290822336
17.270884 -42.766193 -961.41626 -0.067032181 2.5501888 5.7284193 0 4290822336
-30.885227 -21.437641 -1017.6909 -4.9950809 -3.7021329 0.46608025 0 4290822336
-30.777725 -21.366821 -1016.3356 -4.5286889 -4.2740622 0.71599293 0 4290822336
-17.699467 -46.160698 -952.59973 5.8451195 0.88389933 2.0301769 0 4290822336
-25.50046 43.883301 -947.22766 -4.4764276 -3.8556976 1.9204237 0 4290822336
-30.127483 -22.960838 -1019.7971 -5.4817128 -2.838299 1.100703 0 4290822336
-30.261471 -22.286787 -1018.4713 -4.7561574 -3.9254024 1.1857468 0 4290822336
-25.944447 45.969574 -949.85693 -5.5870142 1.0836563 0.69789779 0 4290822336
-26.785252 47.876705 -949.91205 -5.5590229 -2.8469343 -0.42307192 0 4290822336
-26.999939 48.19046 -949.35065 -5.776619 -2.0834038 -1.2818551 0 4290822336
-27.310629 49.022385 -948.63306 -6.0520639 0.41431782 -1.560883 0 4290822336
-17.684433 -45.640999 -953.03528 5.8074536 1.6801417 1.6280459 0 4290822336
-27.071932 48.578434 -949.77753 -5.8664269 -2.0407414 0.25494322 0 4290822336
-26.346022 47.090069 -950.79883 -5.2272801 -2.9052925 1.6025301 0 4290822336
-20.023333 30.558434 -977.84668 2.6194866 -3.5543628 -1.0562522 0 4290822336
-8.5911655 34.231041 -935.46869 -1.9814256 4.4260025 3.9637976 0 4290822336
-30.993677 -20.660801 -1014.1115 -4.7419362 -3.9672732 0.98710662 0 4290822336
-31.33153 -20.17013 -1014.0896 -5.3078766 -3.2445519 0.80678856 0 4290822336
-17.433084 -46.643394 -953.22662 5.9001441 0.18981773 1.9430298 0 4290822336
-30.040884 -22.312756 -1017.7564 -4.3170033 -4.3879852 1.2202563 0 4290822336
-30.494099 -21.59066 -1016.1203 -4.0266676 -4.7142797 0.97576094 0 4290822336
-7.4801831 35.12933 -935.96198 -1.4869173 4.6601758 3.90734 0 4290822336
-30.918989 -21.003033 -1015.0815 -4.5056405 -4.2163119 0.92736268 0 4290822336
-31.513689 -19.612429 -1013.1525 -5.4764266 -2.9501309 0.83645004 0 4290822336
-31.44533 -19.45969 -1012.2267 -5.4196358 -2.9035563 1.1647031 0 4290822336
24.195164 -32.299049 -1001.5441 5.0883737 3.6143067 -0.016152009 0 4290822336
-26.124649 46.792439 -949.8183 -5.4922481 -2.5532227 -1.0761324 0 4290822336
-21.418756 -45.977005 -949.35455 1.38903 1.0883417 6.0127378 0 4290822336
-31.191896 -20.060373 -1012.8082 -5.0923939 -3.488065 1.0655973 0 4290822336
-31.499516 -18.713104 -1010.7944 -5.4035115 -2.8631563 1.3937007 0 4290822336
-31.794708 -17.727314 -1010.1067 -5.6742153 -2.341639 1.2854207 0 4290822336
24.538307 -45.529915 -961.60449 3.0467424 5.069623 2.1094813 0 4290822336
-29.128296 -43.522587 -951.90344 -4.6358299 3.9947865 0.87614232 0 4290822336
25.405828 -43.312912 -969.52325 5.7644472 2.4174495 -0.20769013 0 4290822336
-26.200991 47.008255 -950.27222 -5.4414101 -2.8986833 0.23785469 0 4290822336
-27.343529 48.149708 -948.26227 -5.813179 -1.6568103 -1.547622 0 4290822336
-31.411285 -17.949293 -1009.0391 -5.3137236 -2.8364985 1.7270708 0 4290822336
-27.191313 46.99036 -947.69904 -4.9883952 -1.29951 0.97482705 0 4290822336
-26.007643 44.433563 -947.49994 -5.158864 -3.0840631 1.2200798 0 4290822336
-30.955727 -19.942394 -1011.6295 -4.7399216 -3.8345118 1.4880046 0 4290822336
-26.331356 45.243095 -948.14838 -5.8278298 -1.8922081 -1.3391422 0 4290822336
-31.223438 -19.027912 -1010.4972 -5.0562449 -3.3192122 1.6738095 0 4290822336
-31.19211 -18.598057 -1009.5448 -5.0132055 -3.3260243 1.7533175 0 4290822336
24.116697 -32.078449 -1000.8981 5.035017 3.5990467 -0.22517417 0 4290822336
-25.8929 -34.314259 -970.0506 -4.6535473 -4.1316328 -0.15962175 0 4290822336
-25.977701 46.296967 -949.64197 -5.7870812 -1.073873 -1.2857717 0 4290822336
-31.514441 -17.048479 -1008.0328 -5.4108858 -2.4539723 1.954736 0 4290822336
-30.581575 -21.202148 -1014.667 -4.0004396 -4.7086296 1.1028569 0 4290822336
-30.569868 -20.920017 -1013.3947 -4.1068339 -4.6090107 1.116075 0 4290822336
-31.574043 -16.34177 -1007.4678 -5.5865788 -1.8782316 2.1340222 0 4290822336
-30.50955 -22.421452 -1022.5355 -6.0993128 -1.3949318 -0.51257211 0 4290822336
-30.381672 -20.644169 -1011.8035 -3.9582059 -4.5475655 1.6065782 0 4290822336
22.964399 -47.509541 -956.85602 5.207984 2.1993954 2.5280392 0 4290822336
-25.446674 44.045944 -946.87408 -3.8649824 -2.5461142 3.6301324 0 4290822336
24.927824 -45.221367 -962.86957 3.6348941 4.623641 2.199702 0 4290822336
-8.8352222 34.933548 -936.1947 -1.134577 3.2085254 5.1847277 0 4290822336
-31.138678 -16.41256 -1006.4777 -5.23596 -2.2092962 2.5693235 0 4290822336
-28.322493 -28.729748 -957.20898 -4.2155113 2.8587468 3.6596236 0 4290822336
-26.915771 50.337082 -948.52924 -5.7785254 1.6324177 -0.73248541 0 4290822336
-29.788855 -21.281229 -1012.4968 -3.4324811 -5.0623217 1.4076523 0 4290822336
-26.36607 45.712467 -948.46478 -5.6148701 -1.6441818 -2.2265449 0 4290822336
-28.954092 -42.390659 -958.48987 -4.5158858 4.0024595 -1.6669205 0 4290822336
-29.881935 -21.633205 -1014.1662 -3.5010295 -5.0687571 1.1878425 0 4290822336
-30.091393 -21.303638 -1013.3702 -3.6219053 -4.9688649 1.2278051 0 4290822336
-30.715302 -19.956268 -1010.9261 -4.4949059 -3.904103 1.8811293 0 4290822336
-24.187138 41.632168 -949.5849 -3.2903655 -3.5953488 3.2187147 0 4290822336
-26.177439 45.302582 -948.836 -6.0953221 -0.69801646 -1.2045771 0 4290822336
-31.077198 -18.224199 -1008.5813 -4.838295 -3.3376911 2.1303332 0 4290822336
-29.433914 -21.211987 -1011.4933 -3.2508585 -5.0168428 1.8736076 0 4290822336
-26.167309 46.312477 -950.65668 -5.2760315 1.6033602 2.5496583 0 4290822336
-30.360394 -20.311174 -1010.9254 -3.8718181 -4.4520917 2.0533905 0 4290822336
24.889477 -21.374668 -1010.7403 4.2862945 -4.1635523 1.9171678 0 4290822336
-30.87709 -18.969652 -1009.4601 -4.5129609 -3.8347073 2.0534418 0 4290822336
-29.791771 -20.618076 -1010.6697 -3.3095303 -4.7871885 2.3196962 0 4290822336
10.220273 -49.55497 -959.60938 -6.1503477 -0.73401213 -0.48797593 0 4290822336
-30.767803 -16.212231 -1005.6442 -4.8478351 -2.4677839 3.0217423 0 4290822336
-30.47345 -19.321102 -1009.3519 -3.9427278 -4.2571259 2.3929663 0 4290822336
-7.5012221 23.255081 -935.30176 0.84911323 -5.7873015 -2.1383481 0 4290822336
-30.504259 -18.705925 -1008.2379 -4.0245953 -4.15064 2.3560805 0 4290822336
-30.704647 -14.197133 -1004.3471 -5.2240996 -1.4201885 3.1525009 0 4290822336
-30.526312 -12.450932 -1003.3898 -5.3742743 -0.96591014 3.0641739 0 4290822336
-28.918518 -21.229322 -1010.8112 -2.8037312 -5.0489225 2.4360075 0 4290822336
-8.308301 34.920292 -936.04285 -1.3021332 3.8845413 4.7257829 0 4290822336
-30.135548 -20.009825 -1010.0074 -3.6208172 -4.4522738 2.4998753 0 4290822336
-30.010422 -18.861866 -1007.8214 -3.1035872 -4.7750702 2.610523 0 4290822336
-30.398184 -18.08873 -1007.0699 -4.1433549 -3.6407161 2.8707731 0 4290822336
-30.724382 -15.22926 -1004.9097 -5.1395955 -1.8303866 3.0700331 0 4290822336
-30.288839 -16.301111 -1005.0805 -3.9884653 -3.2436121 3.5378375 0 4290822336
-27.102411 50.214386 -948.06805 -5.9338198 1.5803906 -0.86563522 0 4290822336
14.85245 -50.927467 -956.11841 -0.46212357 -0.61290967 6.1004186 0 4290822336
-27.535572 48.531048 -947.9469 -5.5774922 -0.71755207 0.22330827 0 4290822336
-29.905729 -19.334642 -1008.572 -3.2873724 -4.6376786 2.6650102 0 4290822336
-27.217703 49.642078 -948.54059 -5.9103975 1.7178468 -1.1146954 0 4290822336
-28.452139 -42.856174 -951.68317 -4.8780551 3.7933733 0.99497235 0 4290822336
-25.640362 52.37912 -949.32538 -4.0772786 4.2809772 -1.5546881 0 4290822336
-18.742117 -48.201557 -952.23297 3.8716834 0.23819003 4.9268885 0 4290822336
-24.763494 53.264271 -949.29657 -3.7702217 4.4147892 -2.3542607 0 4290822336
-30.340469 -15.629024 -1004.5905 -4.5092306 -2.4763219 3.530658 0 4290822336
-27.051914 47.547688 -952.02466 -5.2929544 -3.2841177 0.58107269 0 4290822336
-30.129166 -18.439276 -1007.1948 -3.1863773 -4.3990402 2.9337108 0 4290822336
-26.946737 47.97797 -953.58051 -5.1716285 -2.8179071 -2.1733437 0 4290822336
-27.786619 48.89735 -953.03754 -5.0973639 -2.7696989 -2.2236362 0 4290822336
-30.071831 -17.645292 -1006.2084 -3.5577919 -3.7636213 3.484978 0 4290822336
-27.464048 48.196922 -951.46759 -4.7368431 -3.9543264 1.1231717 0 4290822336
-29.88364 -18.048004 -1006.481 -2.9485676 -4.1809254 3.5707822 0 4290822336
-26.162964 46.790051 -950.64813 -5.6703577 -1.5640254 1.5834374 0 4290822336
-11.426088 33.175724 -935.06488 -0.87954038 5.0366998 3.6482949 0 4290822336
-30.294348 -14.827405 -1004.0676 -4.6619883 -1.9932644 3.6747108 0 4290822336
-28.627523 38.188858 -954.75012 -3.3128238 4.5264783 2.7757363 0 4290822336
-29.822412 -10.483077 -1001.76 -4.8462243 -0.88993895 3.8282952 0 4290822336
-19.497831 23.690742 -946.31464 -0.12509193 4.8959007 3.9300489 0 4290822336
-24.435766 43.484398 -946.40027 -3.3429246 -1.7709959 4.5954847 0 4290822336
-29.954668 -14.02241 -1003.2473 -4.4372516 -1.9780955 3.9629469 0 4290822336
-30.012306 -12.699234 -1002.7155 -4.7357349 -1.5012407 3.801393 0 4290822336
-29.144461 -10.959848 -1001.2068 -4.2309704 -1.3693339 4.4343557 0 4290822336
7.1526389 31.115351 -985.81946 4.998868 2.2228634 -1.175364 0 4290822336
-27.509277 -28.760695 -956.39337 -3.3811078 3.1254497 4.2601738 0 4290822336
23.945503 -23.625509 -1014.3544 4.3483787 -4.3274646 1.3112364 0 4290822336
-29.452597 -13.415162 -1002.4305 -4.0411334 -2.0692427 4.3105669 0 4290822336
-29.016144 -41.485493 -956.13617 -5.9517498 2.001054 -0.10051574 0 4290822336
21.919924 -5.971087 -952.79065 -0.83794266 -5.8751545 0.8332774 0 4290822336
-24.234169 42.057491 -948.69269 -4.2051597 -4.2355733 1.9362868 0 4290822336
-25.084751 42.480434 -949.22461 -3.2311513 -3.4725351 3.9766293 0 4290822336
-28.96402 -9.1375189 -1000.5461 -4.2560554 -0.63210386 4.5132532 0 4290822336
-29.955616 -15.560862 -1004.1094 -3.9132595 -2.8464041 3.9213133 0 4290822336
-29.062702 -15.120012 -1003.0242 -3.5529852 -2.7506826 4.3661094 0 4290822336
-29.450628 -11.936686 -1001.7957 -4.2993174 -1.55971 4.2721515 0 4290822336
-11.919545 32.786095 -934.59344 -0.62308657 5.3411217 3.2390165 0 4290822336
-29.616968 -14.764071 -1003.2948 -3.9944167 -2.3948274 4.1924295 0 4290822336
-27.266747 49.599407 -949.51746 -5.5982943 -0.50701714 2.5037582 0 4290822336
-28.8025 -11.857167 -1001.1835 -3.7943153 -1.7635976 4.6602259 0 4290822336
-25.614655 -35.877728 -967.9812 -6.1607265 1.1189018 -0.0022962037 0 4290822336
-28.002295 49.310421 -952.94507 -5.624856 -1.2334312 -2.1197035 0 4290822336
-24.730581 53.585712 -948.68823 -1.3699522 5.4746265 0.19117805 0 4290822336
-25.893847 52.574184 -948.75952 -4.1385822 3.1263554 -3.5195391 0 4290822336
-26.65587 51.173401 -948.81195 -5.5304871 2.7088482 -0.91483366 0 4290822336
-28.041185 -10.303588 -1000.0925 -3.3714957 -1.3225107 5.1077528 0 4290822336
-22.05851 -46.480221 -949.10516 0.69288242 1.6141628 6.0065007 0 4290822336
-25.512688 53.866409 -947.53607 -0.17402217 5.4531622 0.17068058 0 4290822336
-10.781991 -34.101746 -1011.1415 -0.98600686 -6.1350851 0.54363042 0 4290822336
22.023636 -5.7098231 -953.99121 -0.78410691 -5.9822936 -1.6417866 0 4290822336
18.665764 -15.577202 -1025.0958 5.2773466 -2.3663511 -2.4372284 0 4290822336
-26.786314 -33.668293 -971.50958 -3.0049491 -5.4789042 0.33774579 0 4290822336
-28.437019 -15.959267 -1003.1229 -3.273665 -3.3872821 4.1290965 0 4290822336
-28.704662 -13.521432 -1001.8665 -3.5193381 -2.3855939 4.6125135 0 4290822336
-26.839563 46.606808 -952.34863 -5.9657593 1.2651479 0.98732537 0 4290822336
-23.367556 -42.513947 -949.56958 -1.8681605 2.1043851 5.6089792 0 4290822336
-28.381538 -12.737043 -1001.2307 -3.4865856 -2.1916184 4.7247849 0 4290822336
-27.837736 49.548489 -953.43341 -5.6291099 -1.0901675 -2.3703759 0 4290822336
-24.201414 17.712303 -962.37207 0.82490844 1.3748829 6.0433693 0 4290822336
-26.869915 -8.4149437 -999.18451 -2.3374171 -0.61468792 5.7748837 0 4290822336
-27.453587 -14.488041 -1001.5201 -3.0686932 -2.6048663 4.8171549 0 4290822336
-27.200167 -11.339546 -999.89484 -2.7263625 -1.7655216 5.3240061 0 4290822336
-26.771273 46.976471 -952.01556 -5.7934928 -1.5670831 1.5631521 0 4290822336
-8.8030996 25.588213 -929.42773 -1.0906259 0.76006085 5.981514 0 4290822336
-26.126965 45.214058 -949.26569 -5.9879074 0.84277093 0.76536793 0 4290822336
-25.769968 43.949154 -948.10388 -5.2087083 -3.3225918 0.9202919 0 4290822336
-27.737236 -12.597516 -1000.7203 -3.1350803 -2.214314 4.9475808 0 4290822336
-26.895456 -9.8570805 -999.39569 -2.216892 -1.0791823 5.7505627 0 4290822336
-23.56908 42.410522 -946.55023 -4.1926603 -3.7684777 2.7398739 0 4290822336
7.2127628 30.674454 -985.97632 5.2358685 -0.14382197 -1.5184567 0 4290822336
-23.622351 42.835281 -946.11548 -3.8309686 -3.0078917 3.8578486 0 4290822336
-28.629463 -43.166481 -951.40399 -4.5113182 3.8054686 2.0934026 0 4290822336
19.579922 -4.8538289 -953.94049 -1.7541084 -4.8629637 3.4180872 0 4290822336
-26.599918 -11.060817 -999.56396 -1.860678 -1.6356255 5.7273226 0 4290822336
-26.842258 46.596836 -952.86707 -5.7073436 2.1420908 -0.45276976 0 4290822336
-26.456371 46.796638 -954.21021 -5.5500937 1.9958372 -1.5243099 0 4290822336
-26.293684 -13.323727 -1000.3508 -2.0341921 -2.4600656 5.401391 0 4290822336
-26.959751 -12.218531 -1000.1155 -2.4287183 -2.2077672 5.3189139 0 4290822336
-26.072338 -9.6385241 -999.09778 -1.2606058 -1.0558941 6.0135503 0 4290822336
-28.052418 49.045315 -952.52814 -5.4737654 -2.3741293 -1.3018682 0 4290822336
11.112499 -16.289135 -961.00421 -0.35156804 -4.4415421 4.4108353 0 4290822336
-28.123835 49.028511 -952.02173 -5.5925508 -2.2974083 -0.31222534 0 4290822336
-31.701809 -35.143631 -1002.0611 -1.1182461 0.43492374 6.0450401 0 4290822336
-27.5376 48.93008 -947.88336 -5.3539896 0.60101283 0.98320884 0 4290822336
-26.768549 51.28352 -948.38123 -5.4932156 1.7832251 -2.4371843 0 4290822336
-27.119274 49.887993 -949.01678 -5.9905162 1.3996536 0.86309612 0 4290822336
-26.102245 -12.362117 -999.8689 -1.5407381 -2.15241 5.6694384 0 4290822336
-25.747757 -13.199248 -1000.1265 -1.3106343 -2.2887943 5.6853056 0 4290822336
-25.644541 -12.249962 -999.73877 -0.75123823 -1.9881212 5.8861985 0 4290822336
1.637255 22.995943 -935.06171 -0.58541143 -6.200407 -0.52300769 0 4290822336
-25.311199 52.93755 -949.05371 -3.7155981 3.7898371 -3.3560295 0 4290822336
-2.6802881 23.452074 -933.8042 0.087787449 -5.7320538 1.700632 0 4290822336
-6.6896572 17.082672 -936.73212 -0.47198528 -3.5663657 5.0876207 0 4290822336
-8.7914286 23.44084 -933.61981 -0.20496562 -4.8949966 3.7289615 0 4290822336
-25.496304 53.260368 -948.55762 -3.2129447 3.7809367 -3.8134961 0 4290822336
-30.482298 33.70089 -955.60779 -4.3688483 -3.4615366 2.549536 0 4290822336
-30.206491 35.247051 -954.93878 -5.7324142 -0.93103963 1.7939599 0 4290822336
12.63106 -32.185745 -1000.6664 -3.7380357 4.3230367 2.5655272 0 4290822336
-10.098466 22.917149 -934.6936 0.12103704 -5.8124204 2.11689 0 4290822336
-23.731186 54.191212 -948.11853 -3.7213631 0.47396567 4.360146 0 4290822336
-24.515373 -13.833055 -1000.1481 -1.1611195 -1.9242495 5.8606749 0 4290822336
-12.636763 13.929514 -939.74445 0.46772817 -5.3083701 3.2614286 0 4290822336
9.2080021 56.328785 -953.03949 -0.56065887 5.1652703 -3.50682 0 4290822336
-30.688286 23.460117 -960.57611 -4.7132082 -3.5471315 1.902102 0 4290822336
-30.609259 23.891376 -959.84613 -4.2052588 -2.8334005 3.3479128 0 4290822336
-26.968458 48.459438 -954.0874 -5.1040311 -2.4862242 -2.6803658 0 4290822336
-29.529039 32.601036 -956.07037 -5.4558997 -3.0375612 -0.3596366 0 4290822336
-29.657711 32.900608 -955.55194 -5.2671561 -3.1377566 0.80434537 0 4290822336
-23.084126 -9.3564844 -998.78857 -3.6866848 -0.25782499 4.9325027 0 4290822336
-27.60158 48.280712 -951.96375 -5.0196509 -3.7288542 0.037150681 0 4290822336
-30.020199 23.727058 -959.46307 -4.3162637 -2.3920279 3.7727866 0 4290822336
-30.325304 24.208361 -959.37744 -3.6710219 -2.2976885 4.4287939 0 4290822336
-29.324631 32.043331 -955.61005 -5.3837585 -3.0169771 0.20137484 0 4290822336
-23.525663 -13.959725 -999.62738 -4.1899147 -0.13359404 4.6532264 0 4290822336
-23.180901 -10.819515 -998.93896 -3.7244163 -0.59046912 4.9854145 0 4290822336
-30.280846 23.271797 -960.20129 -4.454751 -3.3923059 2.8038671 0 4290822336
-25.677599 43.621456 -948.59778 -5.0443273 -3.3135121 1.6272454 0 4290822336
-26.688087 -33.748116 -968.89111 -3.4859409 -5.2148147 -0.0938835 0 4290822336
-23.679777 41.467037 -948.40753 -5.5468297 -1.4571835 1.9544388 0 4290822336
15.235386 -50.730598 -956.04242 -2.7663658 0.65702105 5.4583554 0 4290822336
-24.218798 43.0825 -946.53455 -3.8749726 -3.607914 3.2728295 0 4290822336
-25.010759 43.382065 -947.30133 -4.0890212 -4.3101358 2.0189493 0 4290822336
-29.287527 21.360966 -961.65149 -3.4955785 -5.0687695 0.61933386 0 4290822336
-29.929232 22.233532 -960.23181 -4.5316443 -3.0503712 2.0940104 0 4290822336
-8.2463932 -34.454407 -1010.7968 -0.25631869 -6.0675793 -1.5339371 0 4290822336
-3.23438 -35.197926 -1007.5277 -0.32951942 -5.8789449 1.9462532 0 4290822336
-25.880568 43.700832 -949.03699 -4.7216892 -2.4208148 3.1436648 0 4290822336
-29.785683 24.962677 -958.8266 -3.6809089 -0.23189624 5.0250874 0 4290822336
10.988196 56.616196 -952.63617 0.77591789 5.0956492 -3.406215 0 4290822336
-29.638733 21.869261 -960.54041 -3.3502398 -4.8930407 1.9021181 0 4290822336
-29.047539 31.806833 -955.00128 -3.7138438 -4.564445 1.4220611 0 4290822336
-23.572372 41.070236 -948.06793 -5.5788188 1.5170259 2.2255306 0 4290822336
11.546911 -34.884544 -1009.2409 -0.27228558 -6.0623384 -1.5942998 0 4290822336
-22.89278 42.848038 -945.52777 -4.1992779 -1.2438297 4.4425216 0 4290822336
-27.268831 49.056244 -949.87866 -5.189436 -2.3674431 2.3432651 0 4290822336
-27.556396 49.957474 -949.81085 -5.0515771 0.47920379 3.2634153 0 4290822336
-22.996395 -12.272575 -999.1723 -4.1677885 -1.0537704 4.451108 0 4290822336
-26.609936 46.457348 -951.70734 -5.1412821 1.9030246 2.3898735 0 4290822336
-26.851427 47.081345 -952.57806 -6.0487509 -1.2218527 -0.43571743 0 4290822336
-32.176506 -10.530451 -974.3349 -5.4008465 -2.7182219 -1.5473729 0 4290822336
-28.60301 20.929075 -962.09058 -2.1251354 -5.730257 0.76478535 0 4290822336
-29.57004 22.221802 -959.77759 -3.495831 -3.9534042 3.1170335 0 4290822336
-28.627567 31.620584 -954.93439 -1.5395993 -5.3666525 2.5162728 0 4290822336
-27.609291 49.49826 -953.86353 -5.2178206 -1.9037349 -2.8570881 0 4290822336
-28.976658 21.366945 -960.87524 -2.2617471 -5.4684544 1.7378427 0 4290822336
-17.62888 -47.877502 -953.19519 5.6240878 -1.1556774 2.3402343 0 4290822336
24.285702 -22.013414 -1010.8428 3.8900342 -4.3795085 2.2361603 0 4290822336
-28.972599 21.686417 -960.08124 -2.0992074 -5.1676326 2.6264298 0 4290822336
-24.144753 54.200409 -949.34106 -5.9162202 1.9997075 0.051687241 0 4290822336
14.423772 -37.739014 -1000.2281 -0.59532905 -6.1293788 -0.5158813 0 4290822336
-26.848948 51.517086 -948.06458 -5.7588954 1.4267043 -1.8614191 0 4290822336
-29.031799 22.210186 -959.33771 -2.4680593 -4.1628437 3.8344028 0 4290822336
-27.036545 51.079178 -947.89679 -5.6981645 1.2525589 -0.41963211 0 4290822336
-28.08441 31.374723 -955.3147 -0.57417142 -5.6622758 2.5366549 0 4290822336
-22.968481 -15.402867 -999.41583 -3.9687896 -3.1974733 3.6267204 0 4290822336
-28.50453 38.53175 -955.27014 -4.3701916 4.1136155 1.5695636 0 4290822336
-22.604189 -15.38959 -998.98505 -4.6724277 -2.7312064 3.1487274 0 4290822336
-31.515652 -11.163644 -975.45245 -5.8172231 -2.1578598 -0.89213216 0 4290822336
-31.732229 -11.603561 -973.31726 -5.1964283 -3.3567243 -1.0828816 0 4290822336
-30.252928 -21.684311 -1024.2426 -5.9403601 0.12793615 -2.0159457 0 4290822336
17.243185 -37.913273 -999.2699 -0.88519245 -6.177475 0.055243105 0 4290822336
-27.136829 47.708374 -952.52521 -5.3596048 -3.1415861 -0.79946876 0 4290822336
-29.884537 -23.441412 -1019.6108 -5.8929749 -1.4647971 1.4294817 0 4290822336
-28.783499 21.923313 -959.56702 -1.2777888 -4.9037647 3.4259267 0 4290822336
-27.630547 49.42112 -950.05249 -4.646903 -1.6700075 3.7100067 0 4290822336
-28.171316 31.740545 -954.66882 -0.21363419 -5.1580873 3.5179009 0 4290822336
-25.365618 43.023174 -948.96899 -4.2870865 -3.5951858 2.7883921 0 4290822336
-28.016075 48.162357 -958.08014 -4.6828961 4.0969586 0.21440946 0 4290822336
-26.384409 43.891151 -949.38025 -1.6071151 0.082335338 5.850316 0 4290822336
-30.392412 -23.008398 -1022.8027 -6.1981616 -1.0021794 0.10488033 0 4290822336
-25.620646 42.943615 -949.33679 -2.7395258 -2.2334371 4.8383923 0 4290822336
-26.886919 28.907949 -958.64026 -3.8780391 -1.7909104 4.5463915 0 4290822336
-26.357311 29.30538 -957.93866 -4.328414 -2.1126866 3.949563 0 4290822336
-26.857176 30.852037 -956.17126 -1.2704301 -5.6039848 2.523185 0 4290822336
-29.517105 24.650488 -958.56073 -4.8394327 -0.51550502 3.9528012 0 4290822336
-25.091311 53.475697 -948.62946 -2.2971354 4.9794564 -2.8061986 0 4290822336
-26.230553 44.535465 -949.32098 -4.6073928 0.54632711 3.8124552 0 4290822336
-27.619497 -52.338638 -954.1167 0.13821782 -6.1063018 -1.3857197 0 4290822336
-28.165695 22.121342 -959.32269 0.22161527 -4.6378932 4.2195387 0 4290822336
-22.785942 41.7868 -946.01862 -5.1676226 -1.9864888 2.9418516 0 4290822336
-20.518841 -52.59676 -952.85272 0.085578367 -6.1823449 0.065755695 0 4290822336
-27.81695 21.691086 -959.81616 -0.21663392 -5.0499039 3.6707962 0 4290822336
-3.1400819 -17.575693 -951.55969 -2.1778209 -5.7851219 0.68027979 0 4290822336
25.527451 -44.860409 -965.13434 5.0340166 3.5316463 1.2408618 0 4290822336
-22.977829 42.342449 -945.85681 -4.2850337 -2.6498213 3.7069957 0 4290822336
-31.902935 -11.492397 -972.66461 -5.5701952 -2.8328872 -0.2726182 0 4290822336
-29.638676 -23.649822 -1018.7442 -5.9737968 -0.27670997 1.7352505 0 4290822336
-26.090935 30.244394 -956.85956 -2.914242 -4.5630126 3.1570587 0 4290822336
-24.539972 42.12775 -949.08771 -3.4265103 -4.4747715 2.7115314 0 4290822336
-22.222256 -15.670614 -997.23535 -6.0227299 -1.5816147 0.74677694 0 4290822336
10.670369 -48.03096 -967.23822 -0.84146881 -5.8921623 -1.9883945 0 4290822336
-31.30781 -12.073756 -973.78723 -5.4439158 -2.9189987 -0.9491449 0 4290822336
-2.511291 -19.911619 -946.44122 -2.5797951 -5.6763706 0.025902839 0 4290822336
9.9353495 -49.002537 -963.55817 -4.9814787 -3.4517803 0.22879449 0 4290822336
-27.634584 21.370218 -960.33026 -0.65431345 -5.4459696 3.0592186 0 4290822336
21.967508 -38.859917 -964.05475 4.5328012 0.56647122 4.2939434 0 4290822336
-25.834934 29.764284 -957.19031 -4.1095419 -2.5844159 3.6902084 0 4290822336
-22.092365 -16.270847 -997.49902 -5.7036347 -2.2126935 1.0632868 0 4290822336
-24.134779 -8.1831102 -986.15906 -5.8554964 -2.2733035 0.1308192 0 4290822336
-1.12805 -20.158796 -944.16602 -0.50540394 -6.0986748 1.121394 0 4290822336
-31.128263 -12.542511 -973.4632 -5.77282 -2.144202 -0.43912023 0 4290822336
-26.862148 47.43195 -951.57654 -5.0004368 -3.3880403 1.6634829 0 4290822336
-29.212328 -42.100922 -955.81885 -5.782114 2.3480835 -0.24786857 0 4290822336
12.225469 -51.26725 -957.20728 -0.48407695 -6.1487021 -1.1805418 0 4290822336
12.902425 -51.375481 -956.79895 -0.39205977 -6.209332 -0.087673634 0 4290822336
-27.054064 21.068672 -960.70404 -0.12140898 -5.4321661 2.9573846 0 4290822336
-25.672951 30.25222 -956.54486 -3.7221675 -3.713469 2.6214657 0 4290822336
-28.375969 39.840698 -961.84784 -2.4492867 2.8620744 4.8876333 0 4290822336
-22.677355 -1.004395 -999.24091 -5.0207748 2.1253157 3.0583329 0 4290822336
-26.519621 48.295269 -954.82855 -5.601336 -1.7354419 -2.1576796 0 4290822336
16.381647 -42.665947 -961.54785 -0.75076562 2.3147955 5.7806206 0 4290822336
-26.386957 47.169827 -954.30664 -5.9435644 -0.27007383 -1.6394051 0 4290822336
-27.090679 48.225876 -950.5307 -4.71033 -3.5740554 2.0699263 0 4290822336
-24.571507 24.987503 -950.76495 -3.7138579 -0.37731335 4.9772296 0 4290822336
-26.021673 52.090187 -949.06525 -4.6605229 3.6316564 -1.9152379 0 4290822336
-23.69865 54.761669 -948.42645 -4.6199455 2.8650057 2.754391 0 4290822336
-19.441008 -49.424805 -951.48669 3.9168339 1.3092053 4.6654334 0 4290822336
-30.287218 -23.856972 -1022.1686 -6.1659994 0.68787891 0.58025789 0 4290822336
-28.939291 -41.18446 -955.00702 -5.852428 2.2625184 0.074804202 0 4290822336
-27.785074 -25.702021 -1032.5956 -5.4429412 -1.8220966 -2.2377763 0 4290822336
-21.893047 -14.201307 -992.41437 -5.6602573 -2.5421095 0.95310134 0 4290822336
-22.832476 -11.223636 -989.24988 -5.7941151 -2.4216282 0.11523104 0 4290822336
-23.569874 55.233601 -951.76868 -4.534441 1.7312673 -3.5681496 0 4290822336
-23.960907 54.4534 -951.23584 -6.0151453 0.45959383 -1.7166896 0 4290822336
-23.936117 53.880184 -948.34204 -3.9688463 0.23797143 4.6399765 0 4290822336
-27.362276 -26.802917 -1032.3456 -4.9892883 -3.0660446 -2.0999911 0 4290822336
-26.231039 51.746048 -949.30585 -4.8556185 3.8046854 -0.1065684 0 4290822336
-18.602821 -48.580414 -952.362 4.4688177 -0.39021945 4.3726549 0 4290822336
-26.334749 21.180162 -960.71454 0.62939453 -5.054101 3.6556201 0 4290822336
-25.948923 22.318769 -959.50287 -0.047188506 -4.3194857 4.5259271 0 4290822336
-26.242085 53.293335 -947.87726 -4.4511776 3.1164351 -2.3887129 0 4290822336
-17.527906 -48.50787 -953.60419 5.5189004 -0.70766944 2.6239486 0 4290822336
-23.000877 -10.744608 -987.07397 -5.6720495 -2.6951399 0.16671011 0 4290822336
-23.77919 52.93512 -948.21387 -1.2703469 3.2056644 4.29109 0 4290822336
-24.27997 53.61562 -948.54486 -2.553021 2.8042359 4.5299659 0 4290822336
-25.192684 20.458748 -961.61432 -0.400846 -5.2696877 3.3341956 0 4290822336
-25.955933 21.17164 -960.73914 -0.2840409 -4.9731331 3.8155026 0 4290822336
-25.447269 21.516632 -960.2417 -0.38809651 -4.7041464 4.112608 0 4290822336
-24.374254 53.34465 -950.07813 -4.6993999 3.7339821 -0.2094124 0 4290822336
15.730329 42.802513 -969.40356 2.7424068 1.2215601 -5.4383817 0 4290822336
25.978998 -46.666412 -960.78442 3.8891649 4.5809851 1.7119137 0 4290822336
-26.376303 53.195992 -947.52307 -4.7696285 2.7271881 1.0838753 0 4290822336
-24.381781 53.768955 -949.02386 -4.7707996 3.7568429 -0.29783455 0 4290822336
-26.370783 48.474964 -955.32642 -5.9317656 -0.11343054 -1.6373777 0 4290822336
-26.312819 46.905827 -954.7785 -5.5669951 1.545851 0.32936758 0 4290822336
-26.628542 48.690117 -954.89343 -5.2570887 -1.7747784 -2.9246495 0 4290822336
-22.338291 -12.548778 -990.33954 -5.8216014 -2.3345659 0.35640323 0 4290822336
20.254526 -38.567177 -962.89648 2.6871176 -0.37180668 5.6574512 0 4290822336
-27.062159 49.320675 -954.60638 -4.9012408 -1.9884186 -3.3586955 0 4290822336
-28.196911 49.300961 -951.46783 -5.952939 -0.93440896 0.42459226 0 4290822336
-27.366798 48.30275 -950.91498 -4.3042035 -4.0827971 2.0313435 0 4290822336
-26.413008 46.110832 -950.83899 -4.3530784 3.4155869 2.886873 0 4290822336
-31.192419 -12.3 -969.43591 -5.8970299 -1.7727485 1.2372501 0 4290822336
-31.231724 -11.774797 -968.80945 -5.9115257 -1.8003823 1.1286495 0 4290822336
-27.198029 49.286064 -949.17267 -6.2182674 -0.018609427 -0.044835895 0 4290822336
-30.483994 -22.331131 -1022.9731 -6.1744957 -0.86129522 -0.70160145 0 4290822336
15.594054 45.679794 -946.88892 5.2418308 -3.3851252 0.37884188 0 4290822336
-31.932209 -7.551928 -964.01105 -5.826138 -2.3107219 -0.045277275 0 4290822336
-22.148178 41.617222 -944.71808 -5.8916969 -0.69943893 2.010375 0 4290822336
-22.073799 -13.096214 -989.8266 -5.6889076 -2.6113007 0.50281 0 4290822336
-23.949965 42.574993 -946.91937 -4.0540037 -4.2424068 2.2269273 0 4290822336
-25.441734 -29.553272 -954.55579 -2.5002084 3.8626802 4.2707257 0 4290822336
-18.785917 -49.381409 -952.22644 4.8226261 0.15510046 4.0074487 0 4290822336
-31.646612 -7.5798249 -961.50562 -5.6950579 -2.1700051 1.3930949 0 4290822336
-24.854469 20.916464 -960.94141 -0.45213255 -5.0780911 3.6602552 0 4290822336
-24.348055 20.993166 -960.73767 -1.1661639 -5.0222545 3.5700755 0 4290822336
-23.7031 43.26125 -945.9469 -3.3193948 -0.72418576 4.8939972 0 4290822336
-31.038157 -9.5639372 -966.23486 -5.7098393 -2.3723512 1.0480249 0 4290822336
-22.782305 25.323421 -948.28564 -0.9662562 2.9098611 5.4697833 0 4290822336
-30.61186 -9.7571926 -964.71124 -5.244432 -3.2389338 0.82339931 0 4290822336
-23.182587 41.713902 -946.81268 -5.1317639 -2.4245076 2.548629 0 4290822336
-31.264624 -8.6694279 -962.20001 -5.2405548 -3.3028388 0.81823838 0 4290822336
-24.432949 -29.73127 -953.81525 -1.6198782 4.7289991 3.7913027 0 4290822336
-22.714893 41.275204 -946.1748 -5.5451436 -0.84514928 2.7141676 0 4290822336
-24.250782 21.855553 -959.62335 -2.5812361 -4.651814 3.1739268 0 4290822336
-25.757866 30.038172 -950.30389 -5.3725276 -2.8680558 1.2347175 0 4290822336
17.90028 -3.4087801 -952.57471 -2.7668049 -4.5806117 3.2044196 0 4290822336
-28.711695 -27.400326 -1028.1475 -5.3561244 -2.2117474 -2.4219499 0 4290822336
-27.891829 49.951973 -953.3064 -5.8764319 0.88156092 -1.7458434 0 4290822336
-26.837379 47.372818 -953.05347 -5.6639237 -2.112936 -1.5915939 0 4290822336
12.774833 -35.849026 -962.89758 -4.230691 -1.0395617 4.4980698 0 4290822336
-26.574902 47.598 -954.06262 -5.5827193 -1.9473569 -2.0628436 0 4290822336
-24.058155 22.046976 -958.96655 -4.5204263 -4.0562119 1.2671796 0 4290822336
-25.850653 30.549648 -949.48584 -5.1081562 -3.0174646 1.7496841 0 4290822336
-25.954515 53.680103 -947.81073 -2.9865265 4.238039 -1.4819062 0 4290822336
-24.117168 54.163536 -948.70782 -5.2443032 2.3873122 2.0340459 0 4290822336
-31.164118 -8.5739889 -961.44147 -5.1610575 -3.1527424 1.4789184 0 4290822336
-23.858856 21.263216 -960.17615 -2.601635 -4.7212777 3.0382714 0 4290822336
-23.836847 21.545456 -959.6571 -3.7076769 -4.4627352 2.3247576 0 4290822336
-23.647303 21.517527 -958.87067 -5.0315399 -3.7484074 -0.077798791 0 4290822336
-24.118044 54.547695 -949.81885 -6.0803337 1.1343877 0.58001876 0 4290822336
-23.864609 54.162235 -951.61603 -5.6917496 1.6218015 -1.9320947 0 4290822336
-30.516342 -9.770978 -963.88672 -4.8478088 -3.9242594 0.55486763 0 4290822336
-31.00773 -9.1964102 -963.38379 -4.8937101 -3.8875763 0.38707209 0 4290822336
14.567809 -10.089192 -955.95569 2.0754082 -3.5564919 4.6965566 0 4290822336
-31.260641 -7.7928171 -960.55914 -5.347055 -2.4357085 2.1293983 0 4290822336
-23.61294 20.757191 -960.75189 -2.3265843 -4.8938074 3.1189895 0 4290822336
-25.253359 25.923336 -957.23193 -4.6481748 -1.1538076 3.9781203 0 4290822336
-24.115396 21.973639 -957.91284 -5.4217925 -2.8537185 -1.1936374 0 4290822336
-25.099791 22.893515 -955.33911 -5.5836425 -2.1369257 -1.7714524 0 4290822336
-25.227875 29.473351 -950.0899 -4.5371342 -3.2883453 2.7880692 0 4290822336
-25.481529 30.222708 -949.29651 -4.0146222 -4.0158343 2.6245594 0 4290822336
-14.526571 13.239051 -941.18225 -0.97552794 -5.6130562 2.6200507 0 4290822336
-29.357153 -29.070311 -1025.3298 -4.2186437 -3.7662137 -2.6261623 0 4290822336
-29.897312 -29.181261 -1024.2177 -4.8977709 -2.976485 -2.4460552 0 4290822336
-24.186161 53.652431 -950.95215 -5.193131 3.1808221 -0.5961495 0 4290822336
-22.909395 20.20751 -960.77905 -4.3912668 -3.7834222 2.2026222 0 4290822336
-23.240248 20.69939 -960.48163 -3.7151091 -4.3895354 2.2119784 0 4290822336
-23.485476 21.267441 -959.54895 -4.4126682 -4.1864567 1.1721237 0 4290822336
-27.952919 48.793205 -951.39532 -5.1138616 -3.462811 0.62768543 0 4290822336
-24.636192 21.837742 -955.05383 -5.4861865 -2.5443642 -1.6571367 0 4290822336
-26.30315 47.521168 -954.78082 -5.963438 -0.73996139 -0.79995674 0 4290822336
-26.612701 49.450993 -955.23383 -4.4891462 -0.60377717 -4.2918396 0 4290822336
-25.077154 29.790112 -949.45581 -4.2484851 -3.731982 2.5590189 0 4290822336
-29.094604 28.137033 -969.93274 -5.8106747 -1.6527064 0.25717545 0 4290822336
26.445684 -47.067211 -960.94318 4.7730479 3.6581101 1.4865261 0 4290822336
-25.50263 31.398331 -947.71906 -4.2746048 -3.1732512 3.1246128 0 4290822336
-26.814539 45.128906 -949.94269 -2.3497422 3.6718085 4.4257798 0 4290822336
-27.081091 44.494888 -949.638 -1.7497125 2.7944288 5.2469401 0 4290822336
-24.550549 41.864136 -949.53326 -1.5647907 -4.2796469 3.9768522 0 4290822336
-22.704405 42.313206 -945.55975 -5.0094805 -2.024832 3.1188195 0 4290822336
-24.335945 53.556522 -949.4892 -4.8995557 3.1776762 -1.5018404 0 4290822336
-18.870518 27.196712 -936.29358 -5.0516129 -3.4519038 1.3116258 0 4290822336
-22.836792 40.860157 -946.45496 -5.4332023 0.77088708 2.8600125 0 4290822336
-26.233509 -35.436466 -974.01349 -4.2371984 0.78437096 4.0313253 0 4290822336
-29.80409 -23.918468 -1019.5016 -5.8837109 0.81740028 1.4250046 0 4290822336
-24.074163 21.531292 -957.14801 -4.8004031 -3.6141453 -1.6152565 0 4290822336
-24.15465 21.391861 -956.58832 -4.8104911 -3.6150122 -1.3662068 0 4290822336
-24.527538 21.958384 -955.65405 -5.7017927 -2.2806675 -1.2486868 0 4290822336
-24.712027 29.140627 -949.5921 -5.3321919 -2.4021637 1.7202359 0 4290822336
-25.540291 31.005419 -948.22803 -4.1098557 -3.6246519 2.8478608 0 4290822336
-26.750853 46.47678 -953.90802 -4.9285364 3.5882926 -1.2407361 0 4290822336
-30.079735 -10.20027 -963.27679 -4.8919196 -3.6793506 1.2661681 0 4290822336
-30.501221 -9.7112112 -963.00439 -4.5084815 -4.3218646 0.61438489 0 4290822336
-28.088264 49.113941 -950.81793 -5.1668606 -1.7524259 1.5161514 0 4290822336
-24.225389 53.111767 -948.40887 0.3988446 2.8430719 4.3714867 0 4290822336
-30.842239 -7.9136882 -959.81708 -4.8818502 -2.7044458 2.8055692 0 4290822336
-23.818348 54.965038 -951.50702 -5.3761978 1.344666 -2.5909419 0 4290822336
-28.195776 -41.668289 -958.52802 -4.4814644 3.6057701 -2.3038116 0 4290822336
-23.877766 54.90099 -949.27704 -5.4690132 2.6450105 1.4981675 0 4290822336
-24.086338 54.940594 -950.58795 -5.9672756 1.1417555 -0.79200876 0 4290822336
-23.610407 21.389889 -958.35205 -4.9839263 -3.7245221 -0.84203911 0 4290822336
14.521973 -42.924244 -961.87683 -1.805449 2.3780584 5.5174365 0 4290822336
-24.66394 21.346621 -954.22778 -5.3801303 -2.91644 -1.3902485 0 4290822336
-24.02923 55.215752 -950.30298 -5.4575882 2.4417975 0.24272232 0 4290822336
-23.490791 55.634804 -951.49225 -4.4054294 3.6221089 -2.2764254 0 4290822336
-23.821886 55.377625 -951.12262 -5.1690865 2.7847857 -1.4910649 0 4290822336
-30.884483 -9.1575708 -962.07135 -4.757709 -3.9477243 0.93264729 0 4290822336
-24.448189 21.201672 -954.80841 -5.4544024 -2.7650335 -1.3337454 0 4290822336
12.626622 26.374887 -935.61816 4.1565094 -4.4911137 0.63761622 0 4290822336
12.690295 26.508476 -935.3291 4.6092401 -3.7965989 1.3496556 0 4290822336
-24.84297 21.354265 -953.4903 -5.3712845 -3.0483744 -0.36201778 0 4290822336
-24.92581 30.631708 -948.10028 -3.6794424 -3.8871479 3.2287705 0 4290822336
-25.134743 31.073851 -947.72076 -3.3333511 -4.1266809 3.3567653 0 4290822336
-31.38026 -30.166964 -1019.1987 -5.4170656 -2.4520745 -2.0080535 0 4290822336
-30.426699 -9.6463327 -962.08972 -4.2406282 -4.4984894 0.97078639 0 4290822336
-30.524321 -9.2820396 -961.14502 -4.4626799 -4.036643 1.6489618 0 4290822336
-30.838982 -8.5804358 -960.56226 -4.8138585 -3.2510929 2.2373774 0 4290822336
-23.249763 55.04636 -952.13757 -3.6367216 2.3784571 -4.4557467 0 4290822336
-24.185259 53.756626 -949.99347 -5.8779759 1.772733 -0.16571733 0 4290822336
-30.89048 -7.2527208 -959.35162 -4.9840641 -2.2910368 3.0266957 0 4290822336
-23.021538 20.662964 -959.92102 -4.7437062 -3.9450684 0.85907888 0 4290822336
-23.542671 20.852407 -956.64954 -4.4263825 -4.2436132 -1.2912017 0 4290822336
-24.807583 21.452444 -952.63837 -5.4025917 -2.7740662 1.2821913 0 4290822336
-31.526476 -29.420479 -1019.5665 -5.7483039 -1.598977 -1.9239928 0 4290822336
-28.52779 -42.741364 -952.54523 -5.3934913 1.7545534 2.2402341 0 4290822336
-22.663654 20.155485 -960.11633 -5.0794468 -3.4786217 0.90477312 0 4290822336
-25.966368 34.513992 -953.34637 1.1971236 -0.015820287 6.1402802 0 4290822336
-23.404673 41.277367 -947.71631 -5.7286935 -0.41936928 2.1632152 0 4290822336
-23.023151 -41.475487 -949.59137 -3.7486639 -1.4401243 4.5626197 0 4290822336
-26.523277 45.622047 -950.38501 -3.3504565 4.3283863 2.9637239 0 4290822336
-24.173208 20.821106 -954.95923 -4.3822036 -4.1487274 -1.3087786 0 4290822336
-27.129774 50.532925 -947.74219 -5.3226972 0.44844216 1.2006712 0 4290822336
-23.410261 -41.571251 -949.87482 -2.6981025 -0.6766876 5.2942929 0 4290822336
-24.628643 32.266003 -946.07373 -4.8567724 -1.9291099 3.4462256 0 4290822336
-19.344381 -37.389172 -964.02606 5.9686441 1.069386 -1.3720098 0 4290822336
-26.862371 50.760674 -948.46753 -5.9398842 1.2867762 -1.3600867 0 4290822336
-19.724686 -36.130295 -964.96832 5.9934378 0.37513274 -1.7132189 0 4290822336
-29.242962 -42.073399 -956.81781 -5.7914095 2.324192 -0.33105201 0 4290822336
-24.360823 20.790781 -954.10437 -4.559514 -4.0508142 -0.85556728 0 4290822336
-24.25029 31.343834 -946.51941 -3.9003897 -3.9064231 2.9436777 0 4290822336
-24.520117 31.792475 -946.27435 -4.1692495 -3.2178526 3.3701451 0 4290822336
-23.46102 52.803345 -947.95654 -0.56294113 4.1015239 4.3108745 0 4290822336
-28.783318 -43.19989 -952.85828 -5.0781555 2.8102193 1.0754594 0 4290822336
-28.994894 -11.010798 -962.01544 -4.924294 -1.8704048 3.2145386 0 4290822336
-29.180195 -10.601381 -961.86115 -4.3345909 -3.8569443 2.3087654 0 4290822336
-30.075655 -9.3639545 -960.36993 -3.8685155 -4.2674551 2.3465867 0 4290822336
-23.621254 20.41925 -955.06104 -3.9971209 -4.6856775 -1.2207114 0 4290822336
-23.790386 20.298794 -953.94928 -3.8948481 -4.8673525 -0.65022504 0 4290822336
-24.257374 20.811054 -952.04456 -4.9751906 -3.4155219 1.4367388 0 4290822336
-25.174095 34.241039 -967.25177 -3.9991131 -2.5655692 -4.0882435 0 4290822336
-30.495882 -30.170286 -1021.5785 -4.6767383 -3.4901738 -2.1605544 0 4290822336
-31.063457 -30.576328 -1019.4834 -5.1238704 -3.0882897 -1.8931782 0 4290822336
21.518196 -38.766796 -963.6637 3.8160567 0.14991084 4.9801664 0 4290822336
-25.284113 35.114845 -967.71753 -2.6822677 -2.6485519 -4.9963951 0 4290822336
-30.479559 -7.4248338 -958.86487 -4.7018938 -2.6001747 3.2428279 0 4290822336
-30.371992 -8.1106319 -959.29645 -4.4442668 -3.0291221 3.2115955 0 4290822336
19.106825 -42.595287 -961.70715 1.3896077 2.265445 5.6795616 0 4290822336
-24.321398 27.546686 -948.3728 -1.8980581 -3.3703094 4.5517979 0 4290822336
-30.701719 -30.63101 -1020.3573 -4.5183558 -3.7464395 -2.0285175 0 4290822336
-30.104601 -8.9727879 -959.81293 -4.0008044 -3.7200711 2.9487147 0 4290822336
-26.114008 35.628654 -967.59625 -2.629009 -3.1893229 -4.689744 0 4290822336
-28.690136 -43.083534 -952.3194 -4.8427167 3.9231658 0.33596668 0 4290822336
22.312246 -39.050114 -964.45459 5.2173462 1.1228355 3.2888169 0 4290822336
-24.091848 20.477016 -952.74371 -4.3514991 -4.4542398 0.30578476 0 4290822336
-23.779516 20.3526 -951.65985 -4.5802126 -4.0521002 1.2058284 0 4290822336
25.398769 -44.060715 -971.08533 5.6186118 2.2814784 -1.636593 0 4290822336
-31.442495 -30.762415 -1018.2092 -5.0593739 -2.9890864 -2.2179101 0 4290822336
-24.160372 28.039104 -947.87518 -1.1353921 -4.3118386 4.0779471 0 4290822336
-23.877666 32.087776 -944.83746 -4.9013758 -3.2769873 2.0463934 0 4290822336
-28.615171 -10.871765 -961.33441 -4.3984494 -3.2407403 2.9073653 0 4290822336
-28.787216 -10.579021 -961.08429 -3.6378052 -4.59377 2.2484066 0 4290822336
-20.469206 38.684429 -972.40082 -4.2986827 -2.9207642 -3.5188403 0 4290822336
-29.082325 -10.058682 -960.34314 -3.1545558 -4.8754215 2.3339829 0 4290822336
-29.849428 -8.4859695 -959.01794 -3.889812 -3.5166309 3.4375634 0 4290822336
-28.401411 35.739201 -964.79138 -3.7451108 -4.9198589 -0.70391548 0 4290822336
-23.060942 20.051435 -955.71985 -4.4892635 -4.2850189 -0.93609971 0 4290822336
-23.035603 19.770613 -954.32953 -3.9939616 -4.7953877 -0.69334555 0 4290822336
10.403145 -47.503521 -961.93146 -5.8107958 2.0207114 1.1470511 0 4290822336
-31.216049 -31.307871 -1017.9745 -4.7285109 -3.3142529 -2.4612756 0 4290822336
-25.550125 34.724293 -967.2749 -3.3748467 -3.2922957 -4.1339626 0 4290822336
26.618967 -46.984959 -962.04639 5.2422104 3.2987461 0.75199342 0 4290822336
-27.645775 -13.592348 -1021.618 -5.6459646 -0.8889991 -2.4290247 0 4290822336
-28.450958 -11.25313 -961.35889 -4.7257605 -1.1145554 3.809505 0 4290822336
-28.297503 -10.795007 -960.81189 -3.5394809 -4.0393729 3.1439652 0 4290822336
-21.937376 18.670643 -957.25372 -5.5807247 -2.8738019 0.11661191 0 4290822336
-22.547182 19.512489 -955.99121 -4.8603182 -3.9473233 -0.43876365 0 4290822336
10.516955 -47.428371 -961.36536 -5.6508155 2.5873556 0.70608747 0 4290822336
-27.492031 35.176636 -965.10974 -3.4472005 -5.1939073 -0.68101239 0 4290822336
26.010693 -45.891918 -963.73529 4.8615136 3.8456011 0.79874104 0 4290822336
-29.391907 -9.4899454 -959.71124 -3.1273217 -4.4091601 3.1157022 0 4290822336
-33.593075 -33.064816 -1011.3107 -5.6784077 -1.2883092 -2.0414956 0 4290822336
25.973772 -45.329784 -965.9975 5.4707031 2.981843 0.75633514 0 4290822336
-22.145657 19.039154 -956.75458 -5.2782149 -3.3941703 -0.13021682 0 4290822336
-26.139175 36.821819 -968.23993 -1.9802616 -2.345978 -5.4449611 0 4290822336
-22.375254 19.222744 -954.52802 -4.3962269 -4.4609785 -0.38064793 0 4290822336
-26.422636 35.17609 -966.96741 -3.2533433 -4.0151 -3.5346775 0 4290822336
25.801449 -44.601318 -967.61194 5.6735802 2.6165118 0.62298763 0 4290822336
-33.9683 -33.261711 -1009.838 -6.1139655 0.18099466 -1.1369299 0 4290822336
-33.788536 -33.450722 -1010.5172 -5.6010423 -1.6616414 -1.8971829 0 4290822336
-27.91077 -10.727818 -960.33606 -2.8266931 -4.3629103 3.4785013 0 4290822336
-28.756517 -10.059738 -959.97723 -2.7735529 -4.7639031 2.9638591 0 4290822336
-29.215078 -8.291688 -958.13525 -3.4733276 -3.7786508 3.5844431 0 4290822336
-29.575191 -7.6918139 -957.93945 -3.9825029 -3.2665057 3.5795805 0 4290822336
-21.828089 40.379822 -941.85681 -6.1021457 -1.2274079 0.055412952 0 4290822336
-24.47504 40.342175 -949.89093 -3.4238517 1.5376308 4.2461519 0 4290822336
-29.86764 -43.832291 -958.50049 -5.6123037 2.8019955 -0.11884598 0 4290822336
25.640467 -44.255287 -970.42645 5.7726126 2.1977189 -1.1288513 0 4290822336
-24.563251 33.93877 -967.79541 -4.8675189 0.95666784 -3.5166121 0 4290822336
-34.06797 -33.922878 -1009.1177 -5.6318154 -1.823809 -1.6036533 0 4290822336
-31.060202 -28.533352 -966.4986 -6.0191751 -1.2606964 -0.77861029 0 4290822336
-27.818256 -11.095212 -960.61951 -3.880949 -2.2884767 4.1673222 0 4290822336
-30.032692 -23.728233 -1020.409 -6.0750976 0.0075626075 1.2345827 0 4290822336
-29.437832 -8.8950262 -959.04114 -3.2428951 -4.0829759 3.4785409 0 4290822336
-29.438713 -7.0811 -957.26532 -4.0441232 -2.8712728 3.8267808 0 4290822336
24.848192 -43.632484 -972.29999 5.3303227 2.44154 -2.1511664 0 4290822336
-22.923847 19.561012 -952.00116 -3.8599362 -4.94172 0.26312253 0 4290822336
-23.222431 19.882627 -951.34412 -4.1851115 -4.6095772 0.77722377 0 4290822336
-23.074284 31.722305 -943.65814 -3.9090288 -4.7562394 1.2249509 0 4290822336
-21.676851 39.937889 -942.15918 -5.6067562 -2.6756704 0.0044056401 0 4290822336
-21.702518 39.968422 -941.46289 -5.3625784 -2.7503963 0.4829475 0 4290822336
-21.62746 40.084087 -940.68628 -5.6506534 -1.9872602 1.1473117 0 4290822336
-34.267426 -34.182491 -1007.7236 -6.104908 -0.38394672 -0.74556124 0 4290822336
-34.091377 -34.589535 -1007.9981 -4.9077506 -3.243978 -1.4850886 0 4290822336
-34.327644 -34.243 -1007.0179 -6.2080278 0.23086385 -0.44177395 0 4290822336
-33.95042 -34.431263 -1008.653 -4.434124 -3.7433012 -1.9549831 0 4290822336
26.854626 -47.762817 -960.96161 5.5354595 2.5638444 1.2081752 0 4290822336
-25.898794 33.346989 -962.56384 -6.2151284 -0.15915722 -0.74196488 0 4290822336
-27.078516 -11.633055 -960.03888 -3.7418056 0.59578687 4.9899673 0 4290822336
-27.261696 -11.203807 -960.19324 -3.7157149 -1.2045057 4.7180953 0 4290822336
-28.149521 -9.8647413 -959.2323 -2.3426158 -4.6487131 3.4857497 0 4290822336
26.512384 -46.679039 -963.22937 5.3118863 3.3176038 0.34509549 0 4290822336
-34.366089 -34.665119 -1006.3179 -6.1582451 -0.59740841 -0.49802068 0 4290822336
