# .PCD v0.7 - Point Cloud Data file format
VERSION 0.7
FIELDS x y z
SIZE 4 4 4
TYPE F F F
COUNT 1 1 1
WIDTH 1373
HEIGHT 1
VIEWPOINT 0 0 0 1 0 0 0
POINTS 1373
DATA ascii
-0.032749701 0.0928085 -0.066012703
-0.0445862 0.089285702 -0.077946797
-0.074476697 0.086319298 -0.084504202
-0.077585503 0.0883587 -0.075848997
-0.018002501 0.090934798 -0.074316703
-0.0210997 0.093286499 -0.065666303
-0.0040172501 0.098321497 -0.047662701
0.0076212501 0.098487198 -0.0473115
0.0138158 0.093783803 -0.0646125
0.0052745002 0.0912662 -0.073614202
0.026794801 0.090778202 -0.075078003
0.024433199 0.093003303 -0.0654957
0.039473701 0.096145697 -0.049961299
0.049355499 0.095491998 -0.051776301
0.054078501 0.091041997 -0.070940703
0.046558201 0.089470796 -0.078708
0.064695202 0.087733999 -0.084670201
0.062968202 0.089402497 -0.074004799
0.076024704 0.090573497 -0.060968298
0.084279999 0.089490503 -0.065115497
0.087733999 0.0861535 -0.086446501
0.081205703 0.085568003 -0.092964798
0.081977203 0.091666497 -0.043483
0.073663197 0.092798501 -0.051385999
0.055883799 0.096077502 -0.045258
0.055307999 0.096584998 -0.034290999
0.071935996 0.094320998 -0.018485
0.080825701 0.092681497 -0.021548999
0.0335663 0.101044 -0.01089
0.0142047 0.100907 -0.029403999
0.0151415 0.100058 -0.039544199
0.036376499 0.098497503 -0.041310702
0.046057299 0.098565698 -0.032053798
0.044183701 0.100263 -0.0117733
-0.087929003 0.086475298 -0.074683003
-0.084942997 0.089753702 -0.048482999
-0.073106498 0.093276501 -0.036548998
-0.052419499 0.097043499 -0.038881
-0.042368699 0.099473 -0.029627001
-0.0429543 0.100566 -0.0087869996
-0.032435201 0.101844 0.00122475
-0.0108117 0.103308 0.00040824999
-0.0524978 0.099131197 0.00387025
-0.053297799 0.098682299 -0.0076210001
-0.073399201 0.093822703 -0.026129
-0.082649998 0.091842003 -0.023891799
-0.081050001 0.092739999 -0.00090925
-0.070999198 0.095169798 0.0083447499
-0.001131 0.103239 0.0096652498
-0.003393 0.101639 0.0289957
0.0071259998 0.100361 0.0390075
0.030425999 0.099404998 0.039700501
0.0389673 0.096887499 0.0487023
0.032749701 0.0928085 0.066012703
0.0445862 0.089285702 0.077946797
0.074476697 0.086319298 0.084504202
0.018002501 0.090934798 0.074316703
0.0210997 0.093286499 0.065666303
0.0040172501 0.098321497 0.047662701
-0.0076212501 0.098487198 0.0473115
-0.0138158 0.093783803 0.0646125
-0.0052745002 0.0912662 0.073614202
-0.026794801 0.090778202 0.075078003
-0.024433199 0.093003303 0.0654957
-0.039473701 0.096145697 0.049961299
-0.049355499 0.095491998 0.051776301
-0.054078501 0.091041997 0.070940703
-0.046558201 0.089470796 0.078708
-0.064695202 0.087733999 0.084670201
-0.062968202 0.089402497 0.074004799
-0.076024704 0.090573497 0.060968298
-0.084279999 0.089490503 0.065115497
-0.087733999 0.0861535 0.086446501
-0.081205703 0.085568003 0.092964798
-0.081977203 0.091666497 0.043483
-0.073663197 0.092798501 0.051385999
-0.055883799 0.096077502 0.045258
-0.055307999 0.096584998 0.034290999
-0.071935996 0.094320998 0.018485
-0.080825701 0.092681497 0.021548999
-0.0335663 0.101044 0.01089
-0.0142047 0.100907 0.029403999
-0.0151415 0.100058 0.039544199
-0.036376499 0.098497503 0.041310702
-0.046057299 0.098565698 0.032053798
-0.044183701 0.100263 0.0117733
0.077927202 -0.089919999 0.073032796
0.068549797 -0.091344498 0.073975503
0.0491313 -0.097023502 0.051200502
0.0487995 -0.098438501 0.038870301
0.067554504 -0.095589504 0.036984701
0.077263802 -0.092749998 0.048372298
0.077527203 -0.093813702 0.024712
0.067866802 -0.095931202 0.026727499
0.049736202 -0.099463701 0.0080984998
0.050331499 -0.099112503 -0.0032315
0.069652498 -0.094877496 -0.0072625
0.078717798 -0.093111202 0.002052
0.0305032 -0.101933 -0.00091200002
0.0403587 -0.100889 0.0090412498
0.0397343 -0.100205 0.029555701
0.0295665 -0.100907 0.0298598
0.0098555004 -0.102995 0.0099532502
0.0101677 -0.103337 -0.00030399999
0.081303798 -0.091481499 -0.020258799
0.070638299 -0.093755201 -0.0173117
0.053288799 -0.095745698 -0.033379201
0.055279501 -0.094467297 -0.044360001
0.076610498 -0.089919701 -0.050253998
0.085285202 -0.088924497 -0.042220201
0.090662003 -0.085811503 -0.064393297
0.078269199 -0.087509498 -0.059504502
0.060255799 -0.087236501 -0.072111502
0.063641697 -0.085401997 -0.083303697
0.088427201 -0.082006 -0.093081303
0.097433999 -0.082142502 -0.086777702
0.040243998 -0.088085502 -0.077039197
0.049590301 -0.089510202 -0.0691645
0.046272699 -0.094330803 -0.050663501
0.0352677 -0.095316201 -0.0492878
0.0165752 -0.092466697 -0.065037303
0.018234 -0.090056501 -0.074287698
-0.00334575 -0.091169 -0.073653497
0.0059409998 -0.093481503 -0.064269297
0.003365 -0.098360501 -0.0469837
-0.0072097499 -0.098487496 -0.047725301
-0.0257832 -0.093862496 -0.066493697
-0.024495199 -0.091422997 -0.075136498
-0.045867201 -0.090788797 -0.078249201
-0.036157999 -0.093628302 -0.066861697
-0.038334001 -0.097784802 -0.048829298
-0.0491313 -0.097023502 -0.051200502
-0.068549797 -0.091344498 -0.073975503
-0.067461804 -0.089266203 -0.082991697
-0.0295665 -0.100907 -0.0298598
-0.029047299 -0.100097 -0.039445002
-0.0082977498 -0.100566 -0.038709
0.00155775 -0.10161 -0.028755801
0.00051925 -0.10323 -0.0095852502
-0.0098555004 -0.102995 -0.0099532502
0.041656699 -0.100108 -0.0112652
0.043628201 -0.097863197 -0.0313638
0.0339798 -0.0977557 -0.040645
0.0127113 -0.099785298 -0.039108999
0.0117255 -0.100908 -0.029059701
0.0310225 -0.101122 -0.0104972
-0.067554504 -0.095589504 -0.036984701
-0.077263802 -0.092749998 -0.048372298
-0.077927202 -0.089919999 -0.073032796
-0.0487995 -0.098438501 -0.038870301
-0.077527203 -0.093813702 -0.024712
-0.067866802 -0.095931202 -0.026727499
-0.049736202 -0.099463701 -0.0080984998
-0.050331499 -0.099112503 0.0032315
-0.069652498 -0.094877496 0.0072625
-0.078717798 -0.093111202 -0.002052
-0.0305032 -0.101933 0.00091200002
-0.0403587 -0.100889 -0.0090412498
-0.0397343 -0.100205 -0.029555701
-0.0101677 -0.103337 0.00030399999
-0.081303798 -0.091481499 0.020258799
-0.070638299 -0.093755201 0.0173117
-0.053288799 -0.095745698 0.033379201
-0.055279501 -0.094467297 0.044360001
-0.076610498 -0.089919701 0.050253998
-0.085285202 -0.088924497 0.042220201
-0.090662003 -0.085811503 0.064393297
-0.078269199 -0.087509498 0.059504502
-0.060255799 -0.087236501 0.072111502
-0.063641697 -0.085401997 0.083303697
-0.088427201 -0.082006 0.093081303
-0.097433999 -0.082142502 0.086777702
-0.040243998 -0.088085502 0.077039197
-0.049590301 -0.089510202 0.0691645
-0.046272699 -0.094330803 0.050663501
-0.0352677 -0.095316201 0.0492878
-0.0165752 -0.092466697 0.065037303
-0.018234 -0.090056501 0.074287698
0.00334575 -0.091169 0.073653497
-0.0059409998 -0.093481503 0.064269297
-0.003365 -0.098360501 0.0469837
0.0072097499 -0.098487496 0.047725301
0.0257832 -0.093862496 0.066493697
0.024495199 -0.091422997 0.075136498
0.045867201 -0.090788797 0.078249201
0.036157999 -0.093628302 0.066861697
0.038334001 -0.097784802 0.048829298
0.067461804 -0.089266203 0.082991697
0.029047299 -0.100097 0.039445002
0.0082977498 -0.100566 0.038709
-0.00155775 -0.10161 0.028755801
-0.00051925 -0.10323 0.0095852502
-0.041656699 -0.100108 0.0112652
-0.043628201 -0.097863197 0.0313638
-0.0339798 -0.0977557 0.040645
-0.0127113 -0.099785298 0.039108999
-0.0117255 -0.100908 0.029059701
-0.0310225 -0.101122 0.0104972
-0.170141 0.0078022499 -0.0093027502
-0.16829599 0.0105345 0.0059374999
-0.16109499 0.031419501 0.021854499
-0.159338 0.039129701 0.0145727
-0.163027 0.033665299 -0.015907699
-0.166627 0.0232228 -0.0238663
-0.16129 0.037099998 -0.036485501
-0.158206 0.038348999 -0.02314
-0.144877 0.053181 -0.0071240002
-0.141295 0.059347998 -0.0124615
-0.14746299 0.056850001 -0.039152499
-0.154127 0.049433999 -0.047160499
-0.137656 0.062646203 0.0142167
-0.143032 0.055913199 0.0081162499
-0.15267301 0.0465458 0.022580801
-0.152117 0.048595 0.035913501
-0.14136399 0.062061001 0.048114501
-0.136544 0.0667447 0.0408822
-0.14475 0.060440999 -0.056898799
-0.141578 0.06129 -0.044475999
-0.123644 0.072668001 -0.028432
-0.117847 0.077508003 -0.032832701
-0.124189 0.07581 -0.057678301
-0.133157 0.070120998 -0.065700203
-0.117876 0.077429697 -0.074521497
-0.116383 0.079069003 -0.061421499
-0.094427504 0.087284997 -0.044062499
-0.098907001 0.082367197 -0.083362497
-0.091256499 0.088133998 -0.031639799
-0.10687 0.081615999 -0.024153201
-0.106069 0.082065001 -0.012662
-0.088856503 0.089481004 0.0028339999
-0.087763503 0.0903005 0.01501
-0.10279 0.084523499 0.023866
-0.103366 0.084016003 0.034832999
-0.089490697 0.088777997 0.047911
-0.0900665 0.089158803 0.059865501
-0.105094 0.085158303 0.070696503
-0.106821 0.083489701 0.081362002
-0.0952475 0.084153198 0.091862001
-0.118452 0.079567 0.070637703
-0.112032 0.082777202 0.064157501
-0.11088 0.082015797 0.040248498
-0.116725 0.078424796 0.0347743
-0.129567 0.072004199 0.047734801
-0.130142 0.072384998 0.059689201
-0.132328 0.065036997 -0.0044395002
-0.12056 0.073917001 -0.0150865
-0.113583 0.0791765 -0.0082339998
-0.111397 0.080815502 0.016117999
-0.117281 0.076375499 0.021441501
-0.131235 0.065856501 0.0077364999
-0.170141 -0.0076279999 0.0053674998
-0.168433 -0.010338 -0.0098782498
-0.161505 -0.031198001 -0.0255927
-0.159748 -0.038918 -0.018204199
-0.163164 -0.033498 0.0122872
-0.166627 -0.023068 0.0201445
-0.161465 -0.036883999 0.0334328
-0.15829401 -0.0381818 0.020131299
-0.14514101 -0.052969199 0.00532775
-0.141735 -0.0590652 0.0112275
-0.14807799 -0.056469701 0.037830502
-0.15465499 -0.049075998 0.0452323
-0.137949 -0.062461 -0.015441
-0.143433 -0.055679198 -0.0099179996
-0.153172 -0.046311799 -0.025606001
-0.152557 -0.0484097 -0.038973
-0.141589 -0.0619733 -0.050019
-0.136719 -0.066656999 -0.042174999
-0.146107 -0.059689999 0.056781799
-0.142399 -0.060743701 0.0448117
-0.124698 -0.071887299 0.032171201
-0.119555 -0.076405197 0.037820999
-0.12697101 -0.074297696 0.061760999
-0.135821 -0.068726003 0.0680812
-0.123214 -0.075010002 0.079790697
-0.119828 -0.076844499 0.068598501
-0.098126501 -0.0840455 0.058333501
-0.108285 -0.078542002 0.091910303
-0.094419003 -0.085099302 0.046363499
-0.108704 -0.080005802 0.032688498
-0.106714 -0.081284299 0.021707799
-0.088446498 -0.088934697 0.0134213
-0.086846203 -0.090037502 0.0012745
-0.101913 -0.084592499 -0.0147325
-0.101317 -0.084943697 -0.0260625
-0.0850605 -0.091091201 -0.032715499
-0.085187197 -0.091715798 -0.045054499
-0.101698 -0.086817198 -0.063079499
-0.10203 -0.085402302 -0.075409703
-0.086182497 -0.0874708 -0.082045197
-0.116491 -0.080464803 -0.067954503
-0.109827 -0.083743498 -0.059753001
-0.109573 -0.082494497 -0.035075001
-0.116111 -0.078591198 -0.0309375
-0.12943999 -0.072033703 -0.047340501
-0.129567 -0.0726583 -0.059679501
-0.13288499 -0.064636998 0.0049072499
-0.121526 -0.073184997 0.0188698
-0.114247 -0.078561798 0.0137042
-0.111046 -0.080767199 -0.0105893
-0.116725 -0.076493204 -0.017570499
-0.131285 -0.065739803 -0.0072395001
0.170141 0.0078022499 0.0093027502
0.16829599 0.0105345 -0.0059374999
0.16109499 0.031419501 -0.021854499
0.159338 0.039129701 -0.0145727
0.163027 0.033665299 0.015907699
0.166627 0.0232228 0.0238663
0.16129 0.037099998 0.036485501
0.158206 0.038348999 0.02314
0.144877 0.053181 0.0071240002
0.141295 0.059347998 0.0124615
0.14746299 0.056850001 0.039152499
0.154127 0.049433999 0.047160499
0.137656 0.062646203 -0.0142167
0.143032 0.055913199 -0.0081162499
0.15267301 0.0465458 -0.022580801
0.152117 0.048595 -0.035913501
0.14136399 0.062061001 -0.048114501
0.136544 0.0667447 -0.0408822
0.14475 0.060440999 0.056898799
0.141578 0.06129 0.044475999
0.123644 0.072668001 0.028432
0.117847 0.077508003 0.032832701
0.124189 0.07581 0.057678301
0.133157 0.070120998 0.065700203
0.117876 0.077429697 0.074521497
0.116383 0.079069003 0.061421499
0.094427504 0.087284997 0.044062499
0.098907001 0.082367197 0.083362497
0.091256499 0.088133998 0.031639799
0.10687 0.081615999 0.024153201
0.106069 0.082065001 0.012662
0.088856503 0.089481004 -0.0028339999
0.087763503 0.0903005 -0.01501
0.10279 0.084523499 -0.023866
0.103366 0.084016003 -0.034832999
0.089490697 0.088777997 -0.047911
0.0900665 0.089158803 -0.059865501
0.105094 0.085158303 -0.070696503
0.106821 0.083489701 -0.081362002
0.0952475 0.084153198 -0.091862001
0.118452 0.079567 -0.070637703
0.112032 0.082777202 -0.064157501
0.11088 0.082015797 -0.040248498
0.116725 0.078424796 -0.0347743
0.129567 0.072004199 -0.047734801
0.130142 0.072384998 -0.059689201
0.132328 0.065036997 0.0044395002
0.12056 0.073917001 0.0150865
0.113583 0.0791765 0.0082339998
0.111397 0.080815502 -0.016117999
0.117281 0.076375499 -0.021441501
0.131235 0.065856501 -0.0077364999
0.170141 -0.0076279999 -0.0053674998
0.168433 -0.010338 0.0098782498
0.161505 -0.031198001 0.0255927
0.159748 -0.038918 0.018204199
0.163164 -0.033498 -0.0122872
0.166627 -0.023068 -0.0201445
0.161465 -0.036883999 -0.0334328
0.15829401 -0.0381818 -0.020131299
0.14514101 -0.052969199 -0.00532775
0.141735 -0.0590652 -0.0112275
0.14807799 -0.056469701 -0.037830502
0.15465499 -0.049075998 -0.0452323
0.137949 -0.062461 0.015441
0.143433 -0.055679198 0.0099179996
0.153172 -0.046311799 0.025606001
0.152557 -0.0484097 0.038973
0.141589 -0.0619733 0.050019
0.136719 -0.066656999 0.042174999
0.146107 -0.059689999 -0.056781799
0.142399 -0.060743701 -0.0448117
0.124698 -0.071887299 -0.032171201
0.119555 -0.076405197 -0.037820999
0.12697101 -0.074297696 -0.061760999
0.135821 -0.068726003 -0.0680812
0.123214 -0.075010002 -0.079790697
0.119828 -0.076844499 -0.068598501
0.098126501 -0.0840455 -0.058333501
0.108285 -0.078542002 -0.091910303
0.094419003 -0.085099302 -0.046363499
0.108704 -0.080005802 -0.032688498
0.106714 -0.081284299 -0.021707799
0.088446498 -0.088934697 -0.0134213
0.086846203 -0.090037502 -0.0012745
0.101913 -0.084592499 0.0147325
0.101317 -0.084943697 0.0260625
0.0850605 -0.091091201 0.032715499
0.085187197 -0.091715798 0.045054499
0.101698 -0.086817198 0.063079499
0.10203 -0.085402302 0.075409703
0.086182497 -0.0874708 0.082045197
0.116491 -0.080464803 0.067954503
0.109827 -0.083743498 0.059753001
0.109573 -0.082494497 0.035075001
0.116111 -0.078591198 0.0309375
0.12943999 -0.072033703 0.047340501
0.129567 -0.0726583 0.059679501
0.13288499 -0.064636998 -0.0049072499
0.121526 -0.073184997 -0.0188698
0.114247 -0.078561798 -0.0137042
0.111046 -0.080767199 0.0105893
0.116725 -0.076493204 0.017570499
0.131285 -0.065739803 0.0072395001
0.239608 0.00058300002 -0.243735
0.240555 0.0077829999 -0.257406
0.237119 0.022311 -0.254498
0.234455 0.022375001 -0.239373
0.232563 0.007975 -0.21203101
0.23428001 0.000711 -0.213485
0.226308 0.00078675 -0.18306001
0.22952799 0.0079602497 -0.19714101
0.22535101 0.022330699 -0.194701
0.220043 0.022342499 -0.179401
0.213603 0.0079955002 -0.15123899
0.215692 0.00081025 -0.152459
0.22235499 0.035695799 -0.207104
0.226298 0.029530801 -0.208373
0.23236801 0.029560201 -0.23815399
0.23146001 0.035739999 -0.25177601
0.22357599 0.048069999 -0.249238
0.22054 0.048055299 -0.234348
0.204528 0.00075625 -0.121292
0.20826501 0.0079817502 -0.136153
0.20403001 0.022301201 -0.13414299
0.198175 0.0222355 -0.118276
0.19070099 0.0077844998 -0.088553503
0.192818 0.00062474998 -0.089558497
0.18319599 0.00044224999 -0.054763701
0.184806 0.0082304999 -0.073936
0.180494 0.023573499 -0.074423999
0.176727 0.023456801 -0.055495702
0.173507 0.00788025 -0.017151199
0.17566399 0.00020875 -0.016907301
0.180122 0.0370997 -0.090407498
0.184231 0.030799 -0.0892855
0.19601899 0.029906999 -0.11852
0.197805 0.0357618 -0.134261
0.189588 0.048363201 -0.13650499
0.18369401 0.048809301 -0.121887
0.18545 0.058655001 -0.15168899
0.190818 0.054498199 -0.15121999
0.201493 0.054166701 -0.178405
0.201464 0.058157701 -0.19246601
0.19073001 0.066471197 -0.193404
0.18539201 0.066637002 -0.179811
0.182485 0.072101504 -0.205835
0.18852399 0.070667297 -0.20643
0.194847 0.070745803 -0.231548
0.19196901 0.072219297 -0.24350999
0.17988899 0.075087696 -0.24232
0.176728 0.075048499 -0.229762
0.20341501 0.0666475 -0.24507201
0.200215 0.066588998 -0.231079
0.204625 0.058196999 -0.205025
0.210031 0.054059502 -0.205991
0.21643201 0.054176498 -0.233977
0.21422701 0.058372501 -0.247004
0.217925 0.029502301 -0.178396
0.207251 0.0294748 -0.148224
0.203142 0.035595998 -0.147853
0.20560101 0.047866002 -0.177283
0.21093901 0.0478797 -0.192369
0.219155 0.0356373 -0.193111
0.116618 0.081078999 -0.111387
0.110831 0.081410803 -0.116637
0.096584499 0.083460301 -0.10362
0.113944 0.082465 -0.087870501
0.124103 0.079693303 -0.131704
0.1234 0.079342 -0.119155
0.13428999 0.077253997 -0.111173
0.14043701 0.076561198 -0.119731
0.14184199 0.077263802 -0.14482801
0.136398 0.078307703 -0.14882
0.138798 0.074355997 -0.093940303
0.132953 0.077946998 -0.099414498
0.119389 0.081421003 -0.083879501
0.136925 0.070648 -0.067456797
0.147414 0.0773222 -0.167477
0.148068 0.076219797 -0.15481099
0.159114 0.073429197 -0.14967801
0.163983 0.073136501 -0.159778
0.16267499 0.0753415 -0.185109
0.157153 0.076736704 -0.187676
0.164979 0.076463498 -0.208762
0.16785701 0.074989997 -0.19679999
0.179527 0.072081998 -0.194848
0.170892 0.076502502 -0.230738
0.180182 0.070979498 -0.182182
0.169818 0.071682498 -0.158802
0.169848 0.067691498 -0.144741
0.180269 0.059006501 -0.139998
0.17930301 0.055737499 -0.1258
0.166949 0.057884499 -0.102146
0.16516399 0.0520298 -0.086406998
0.17394599 0.038173299 -0.078580998
0.173126 0.033899199 -0.063454203
0.16270401 0.039207701 -0.0410267
0.15831301 0.046135999 -0.044939701
0.159953 0.054683998 -0.075193197
0.154576 0.061416999 -0.081293702
0.142184 0.066335 -0.063241303
0.145961 0.075166002 -0.117165
0.15841199 0.073077999 -0.13713001
0.163671 0.068765 -0.13291401
0.16173901 0.062227 -0.104518
0.155513 0.063271001 -0.0945355
0.14499401 0.071897 -0.102967
0.179528 -0.077215299 -0.25859699
0.186261 -0.075741798 -0.27003199
0.198439 -0.0726192 -0.26997399
0.197795 -0.072531499 -0.25850901
0.184329 -0.075478502 -0.235636
0.17824 -0.077039696 -0.23566601
0.173761 -0.0768933 -0.213164
0.183236 -0.075370997 -0.222726
0.194516 -0.072209001 -0.219779
0.190681 -0.072150297 -0.208744
0.171731 -0.075194702 -0.18961801
0.166091 -0.0767757 -0.191092
0.20638201 -0.066451803 -0.230738
0.201249 -0.070735499 -0.231216
0.203435 -0.070950501 -0.25703499
0.20966101 -0.066774197 -0.269467
0.219927 -0.0582068 -0.268511
0.218834 -0.058099199 -0.25560099
0.155719 -0.076805003 -0.16972101
0.16719399 -0.0751362 -0.177147
0.17706899 -0.071974799 -0.171331
0.170531 -0.072062701 -0.160997
0.147581 -0.075400203 -0.146146
0.142643 -0.076981001 -0.14905401
0.12728401 -0.077878803 -0.12853201
0.140848 -0.075527303 -0.13425
0.150332 -0.072443798 -0.125312
0.14151099 -0.073253497 -0.115125
0.114384 -0.077956498 -0.103689
0.109641 -0.079498202 -0.108158
0.166012 -0.066442497 -0.12996601
0.161807 -0.070775002 -0.13273799
0.175273 -0.070520997 -0.156528
0.186211 -0.066061497 -0.16565201
0.19462299 -0.057396501 -0.160109
0.18788999 -0.0575235 -0.148214
0.206596 -0.046863701 -0.16924299
0.203777 -0.053151701 -0.17094
0.213671 -0.053327199 -0.198146
0.22143801 -0.047127001 -0.210051
0.227079 -0.034550998 -0.206655
0.222132 -0.034463201 -0.19305199
0.23299301 -0.0210675 -0.21843299
0.23204599 -0.028382 -0.21977
0.23634 -0.028620001 -0.249395
0.23943301 -0.0214245 -0.262871
0.24132501 -0.0067954999 -0.26019701
0.239179 -0.0066765002 -0.24538399
0.23513 -0.035034999 -0.26516399
0.233519 -0.034908 -0.251093
0.22358499 -0.047246002 -0.22486299
0.220228 -0.053541999 -0.22582
0.22344901 -0.053796001 -0.25396201
0.228416 -0.047626998 -0.26707599
0.195619 -0.0705695 -0.205835
0.186543 -0.070452496 -0.180894
0.191159 -0.066149198 -0.17925499
0.209465 -0.057659801 -0.200918
0.214003 -0.057718299 -0.21338899
0.204772 -0.0663248 -0.216667
0.170394 -0.022951299 -0.0390728
0.18144 -0.0072777499 -0.0621523
0.18634801 -0.00663675 -0.0772245
0.185118 -0.021028301 -0.084289499
0.190974 -0.020962499 -0.100156
0.203914 -0.0064395 -0.124824
0.17619 -0.034961 -0.078649499
0.17959601 -0.028865 -0.072749697
0.16978 -0.030146999 -0.0426053
0.159563 -0.048434999 -0.0603045
0.21007 -0.0063692499 -0.139529
0.209446 -0.0207518 -0.144272
0.214754 -0.0207635 -0.15957201
0.225995 -0.0064045 -0.185431
0.231187 -0.0064845001 -0.20001
0.23032901 -0.0210035 -0.203308
0.22470701 -0.028183 -0.190378
0.214325 -0.028023001 -0.161222
0.20655701 -0.034223299 -0.149317
0.201405 -0.046783701 -0.15466399
0.19245701 -0.053122502 -0.144067
0.179713 -0.053239498 -0.117525
0.16877501 -0.057698999 -0.108401
0.159641 -0.066500999 -0.116696
0.148975 -0.071487501 -0.109065
0.136778 -0.072658502 -0.085509002
0.141344 -0.068257503 -0.081361704
0.16267499 -0.058284499 -0.096623197
0.16781799 -0.0537665 -0.090973496
0.156772 -0.0547035 -0.064412497
0.190661 -0.028153799 -0.102527
0.202976 -0.0280132 -0.131938
0.200185 -0.034281701 -0.13604601
0.182289 -0.0469593 -0.114851
0.17613199 -0.047029499 -0.100146
0.181713 -0.0344925 -0.091930002
0.110461 -0.00072225003 -0.246097
0.113203 -0.0078969998 -0.25500599
0.116345 -0.022437001 -0.258304
0.115174 -0.022532299 -0.25104401
0.10969 -0.0081827501 -0.233226
0.108119 -0.00091275002 -0.23157699
0.103982 -0.0010770001 -0.21767101
0.108997 -0.0082345 -0.225566
0.113095 -0.0226875 -0.228064
0.110128 -0.0227565 -0.22141799
0.100097 -0.0084415004 -0.20563
0.098048501 -0.0012150001 -0.204381
0.119721 -0.036082 -0.23830099
0.115837 -0.029862201 -0.236973
0.117223 -0.029758699 -0.25229299
0.121799 -0.0359268 -0.26128
0.129566 -0.0483662 -0.263935
0.12887301 -0.048418 -0.256275
0.090485997 -0.001306 -0.19215401
0.097433701 -0.0084610004 -0.198516
0.102137 -0.022815 -0.200078
0.097541302 -0.022837 -0.19449601
0.083645701 -0.0085270004 -0.18177199
0.081294 -0.00135 -0.18099201
0.070823699 -0.00133275 -0.171185
0.079195999 -0.0084910002 -0.175625
0.084192 -0.022729 -0.176054
0.078317702 -0.022689801 -0.171829
0.061573301 -0.0083732503 -0.162949
0.0590753 -0.0012542499 -0.162734
0.095276996 -0.035974 -0.181811
0.091139697 -0.029883999 -0.18241601
0.100039 -0.029956 -0.194712
0.108626 -0.036082 -0.20025399
0.116901 -0.048262 -0.199044
0.112451 -0.048225999 -0.19289701
0.129215 -0.058548 -0.20604999
0.123731 -0.054400701 -0.20653801
0.129117 -0.054498199 -0.222736
0.13729499 -0.058694299 -0.23034699
0.14826301 -0.066988803 -0.22937199
0.14557 -0.066940002 -0.22127201
0.160353 -0.072677702 -0.239179
0.154147 -0.0711945 -0.23881701
0.154947 -0.071311504 -0.25868401
0.16155399 -0.072853297 -0.26897901
0.17396601 -0.075819701 -0.269701
0.173566 -0.075761303 -0.25976801
0.149873 -0.067174003 -0.26777899
0.149463 -0.067164198 -0.25917199
0.137695 -0.058752801 -0.240281
0.132221 -0.054556701 -0.23944201
0.13304 -0.0545762 -0.25665599
0.138925 -0.058782 -0.266101
0.11248 -0.029933499 -0.22219899
0.107152 -0.029972499 -0.20797201
0.111319 -0.0361307 -0.208353
0.12498 -0.0484083 -0.223341
0.127644 -0.048388701 -0.230455
0.11931 -0.036072299 -0.22969399
0.0978925 -0.078005299 -0.105318
0.092037499 -0.073399797 -0.120014
0.100859 -0.072590001 -0.130201
0.124357 -0.075576 -0.13588101
0.13186 -0.075468503 -0.14314
0.12337 -0.072267503 -0.151981
0.12990899 -0.072179496 -0.162315
0.151473 -0.075204499 -0.174141
0.108392 -0.0664225 -0.153854
0.111622 -0.070774503 -0.149141
0.096614003 -0.070989497 -0.13462099
0.085880198 -0.066744998 -0.132075
0.079420701 -0.058040999 -0.14150099
0.086924702 -0.057933498 -0.14876001
0.15702599 -0.075243697 -0.182777
0.14656501 -0.072297201 -0.18822201
0.1504 -0.072356001 -0.199259
0.16853 -0.07542 -0.215886
0.171634 -0.075498 -0.225371
0.15970901 -0.072590001 -0.227713
0.150644 -0.071057998 -0.21939901
0.144438 -0.070901997 -0.20043001
0.136261 -0.066706002 -0.192818
0.126113 -0.05847 -0.196566
0.116267 -0.054274 -0.191247
0.106724 -0.054118 -0.176864
0.0981365 -0.047991998 -0.171321
0.090505503 -0.035896 -0.17462
0.080815703 -0.0297505 -0.17141999
0.069067299 -0.0295555 -0.16171999
0.060695 -0.0223972 -0.157279
0.055698998 -0.0082757501 -0.158099
0.066442497 -0.0355157 -0.15420599
0.072882697 -0.035603501 -0.16007
0.092262298 -0.0478945 -0.166471
0.095511697 -0.053952299 -0.163807
0.082631201 -0.0537767 -0.152078
0.072941497 -0.0476312 -0.14887799
0.124678 -0.070706204 -0.16503701
0.135783 -0.070784703 -0.182309
0.13148899 -0.066628002 -0.185627
0.111797 -0.058235999 -0.17499
0.106246 -0.058196701 -0.166354
0.114832 -0.066510201 -0.15971801
0.167916 0.074970499 -0.241569
0.15605 0.071867503 -0.241257
0.153093 0.071847998 -0.230269
0.159045 0.074911997 -0.208607
0.15640099 0.074853502 -0.19903301
0.14516 0.071672499 -0.20155101
0.14029001 0.071965203 -0.191452
0.141793 0.075731799 -0.168735
0.1371 0.065905496 -0.21280199
0.142184 0.070140503 -0.212383
0.14747301 0.0702575 -0.231528
0.145033 0.066081002 -0.24152
0.134865 0.057611 -0.24236
0.132221 0.057552502 -0.232787
0.13729499 0.075858504 -0.16002101
0.12679601 0.072345503 -0.16531099
0.120648 0.073038302 -0.15675201
0.118852 0.077936798 -0.13434801
0.11293 0.078287996 -0.12710799
0.102878 0.074092001 -0.135031
0.095755003 0.075116798 -0.12852301
0.091559 0.081362203 -0.107582
0.099560998 0.067232303 -0.14903399
0.103776 0.071642697 -0.14623301
0.115623 0.070940197 -0.160715
0.11733 0.066178501 -0.170756
0.1089 0.057357501 -0.176356
0.102977 0.057708699 -0.16911601
0.105787 0.046708699 -0.188612
0.108714 0.052947 -0.18671
0.116774 0.052947 -0.20181599
0.117876 0.046708699 -0.211271
0.112022 0.0342323 -0.215077
0.107992 0.0342323 -0.207523
0.109729 0.0208387 -0.226074
0.11084 0.028108001 -0.224512
0.114334 0.028336 -0.23957901
0.114969 0.021180701 -0.24867301
0.112744 0.0066422499 -0.25179601
0.110997 0.0065282499 -0.24426199
0.119506 0.034681499 -0.246029
0.117261 0.034574199 -0.23767599
0.119623 0.046822701 -0.218804
0.123048 0.053054299 -0.217721
0.127537 0.053268701 -0.23442601
0.12635601 0.047144499 -0.243862
0.135041 0.070208803 -0.194097
0.12604401 0.070462197 -0.176669
0.12136 0.066178501 -0.178308
0.12099 0.057357501 -0.19901501
0.125488 0.0572307 -0.207729
0.134856 0.065798298 -0.20445
0.052342299 0.00602875 -0.156684
0.050624799 0.020516301 -0.153035
0.056499001 0.020477001 -0.15726
0.069964997 0.0059110001 -0.16936
0.0762785 0.0058835 -0.173429
0.075439498 0.0203945 -0.169467
0.0800355 0.0204165 -0.17504901
0.0900665 0.0059495 -0.190174
0.070062697 0.034237701 -0.159806
0.068706498 0.027677501 -0.163417
0.056079499 0.027732501 -0.155279
0.0511222 0.034320299 -0.147599
0.0538348 0.047440801 -0.140379
0.060148198 0.047413301 -0.144448
0.095101498 0.0059632501 -0.195755
0.095140502 0.0204578 -0.19179399
0.098107003 0.0205268 -0.198439
0.104001 0.00617025 -0.215691
0.107485 0.0062425002 -0.22248299
0.108557 0.0207435 -0.218814
0.105611 0.027921701 -0.210187
0.098643497 0.027777299 -0.196604
0.097540997 0.034015499 -0.187149
0.102303 0.046636499 -0.181821
0.099141501 0.053054299 -0.17298999
0.088056497 0.053268701 -0.16065601
0.086348698 0.058030501 -0.15061501
0.094018303 0.067339502 -0.142867
0.090690702 0.072481997 -0.13370401
0.076366201 0.073458001 -0.123127
0.074268296 0.076580703 -0.112657
0.084396698 0.081850201 -0.102293
0.065700799 0.068959802 -0.12257
0.072531499 0.068803497 -0.127001
0.079186499 0.058518499 -0.145326
0.075683303 0.053532299 -0.150059
0.062021699 0.053844701 -0.14119799
0.058694299 0.058987301 -0.132035
0.080054998 0.027663801 -0.173068
0.090125002 0.027691299 -0.184232
0.091998503 0.034122799 -0.18098199
0.0856755 0.046958301 -0.16332
0.080640502 0.046944499 -0.157738
0.076893501 0.0340815 -0.16423699
0.035549499 -0.0079487497 -0.150225
0.033051498 -0.00088800001 -0.15063401
0.0464845 -0.001106 -0.155884
0.053978499 -0.0222882 -0.15465499
0.019226 -0.00062599999 -0.14715099
0.0287062 -0.0078090001 -0.147052
0.0334487 -0.021869 -0.14514001
0.026339799 -0.021716001 -0.144282
0.0073792501 -0.0073500001 -0.14447699
0.0050079999 -0.00031999999 -0.14543401
0.045912798 -0.0350965 -0.14469101
0.042663299 -0.029038699 -0.14735501
0.056349799 -0.029318299 -0.153699
0.066098303 -0.047491498 -0.145707
-0.0091695003 8.7499902e-06 -0.145532
-3.2e-05 -0.0072165001 -0.14321899
0.0041060001 -0.0213155 -0.140505
-0.0029625001 -0.021139801 -0.141461
-0.0212375 -0.00668925 -0.14608701
-0.0233065 0.00036025001 -0.14744399
-0.036979299 0.00069725001 -0.15111201
-0.0287765 -0.00658075 -0.14677
-0.025579499 -0.020814201 -0.143511
-0.0321838 -0.020653 -0.14622401
-0.0485893 -0.0060970001 -0.154909
-0.0501878 0.00101975 -0.15653799
-0.015033 -0.034409501 -0.137549
-0.016442001 -0.0280395 -0.14119799
-0.001364 -0.0282565 -0.139832
0.007584 -0.034735002 -0.1355
0.010402 -0.047474999 -0.12820099
0.0028629999 -0.0473665 -0.128883
0.0219827 -0.058587302 -0.120618
0.0202555 -0.053766701 -0.126092
0.037144501 -0.053610299 -0.12917601
0.047316201 -0.0583525 -0.12524299
0.050770801 -0.067993499 -0.114295
0.042326201 -0.068071797 -0.112753
0.064578503 -0.074687503 -0.106108
0.061650999 -0.072384797 -0.113456
0.079957001 -0.071526296 -0.122726
0.088739499 -0.078434497 -0.100682
0.0782298 -0.066705696 -0.12819999
0.056469299 -0.057923201 -0.129878
0.053239498 -0.053571299 -0.134592
0.068540499 -0.053649701 -0.14234
0.028408799 -0.0287655 -0.14292599
0.0135863 -0.028498501 -0.14040799
0.016028499 -0.0346567 -0.137041
0.035735499 -0.047240201 -0.132826
0.0431468 -0.047373701 -0.134084
0.0382622 -0.035057299 -0.140817
-0.074746303 -0.085177504 -0.092788503
-0.067720801 -0.078522503 -0.10764
-0.056923501 -0.079283804 -0.105269
-0.042354502 -0.087461203 -0.085675001
-0.033179 -0.087666303 -0.083021
-0.029397 -0.079898797 -0.097306997
-0.018822201 -0.079771698 -0.0965655
-0.00145475 -0.087285303 -0.080796503
-0.0345052 -0.070511498 -0.11252
-0.036681499 -0.07581 -0.107104
-0.055032499 -0.075400002 -0.112412
-0.062031701 -0.069896497 -0.120482
-0.057679299 -0.059299499 -0.131313
-0.048503701 -0.059504502 -0.12865999
0.0084504997 -0.087050997 -0.080210999
0.0108935 -0.079069003 -0.094809003
0.021898501 -0.0780835 -0.096184701
0.041465499 -0.084094502 -0.084338203
0.0515613 -0.083528496 -0.086016499
0.0521858 -0.076385498 -0.101219
0.042402301 -0.073380001 -0.107143
0.022210799 -0.074511997 -0.103786
0.012039 -0.0697698 -0.107718
0.011887 -0.0591533 -0.11894
0.0031312499 -0.0539327 -0.125117
-0.0142282 -0.054108299 -0.126249
-0.023176201 -0.0476298 -0.13058101
-0.023712801 -0.034497201 -0.138115
-0.031159 -0.0278432 -0.14437
-0.045515001 -0.027667699 -0.14934701
-0.053717699 -0.020389801 -0.153689
-0.055767201 -0.0060092499 -0.157397
-0.053395499 -0.034185201 -0.148059
-0.045246799 -0.034233999 -0.14557999
-0.030354301 -0.047541998 -0.13307001
-0.031056801 -0.054147299 -0.12929399
-0.0473543 -0.054049801 -0.13425
-0.054800499 -0.047395799 -0.140505
-0.0176007 -0.075780697 -0.103865
0.00220975 -0.075312302 -0.102693
0.00335925 -0.0698575 -0.108285
-0.0141523 -0.059416499 -0.120639
-0.0240575 -0.059650701 -0.121224
-0.0263565 -0.070560202 -0.110041
0.066013001 0.077663697 -0.108509
0.059631001 0.085099302 -0.089851797
0.0511765 0.085538499 -0.086728998
0.0406495 0.078981496 -0.099141002
0.0307677 0.079635203 -0.097326003
0.021531301 0.087499797 -0.081284001
0.040337201 0.070277497 -0.113202
0.043840501 0.075263798 -0.10847
0.060749501 0.074385203 -0.114716
0.050239701 0.059426501 -0.128912
0.0116378 0.087558202 -0.080298498
0.00108725 0.079810798 -0.094369501
-0.0105512 0.079645 -0.094720803
-0.023277801 0.087061003 -0.081352197
-0.034057502 0.086709797 -0.082611002
-0.0428905 0.078591198 -0.098497003
-0.057835799 0.077108003 -0.101776
-0.078893296 0.082259998 -0.092447303
-0.0385403 0.069457799 -0.11089
-0.036527202 0.074883297 -0.105182
-0.0149678 0.075585797 -0.102664
-0.006201 0.070511498 -0.107114
-0.010227 0.059660502 -0.11853
-0.0210067 0.0593093 -0.119789
-0.00398575 0.047662001 -0.128601
-0.0034062499 0.054274 -0.124844
0.0142613 0.054352 -0.126054
0.0225155 0.047779001 -0.13041499
0.021356501 0.034554999 -0.13792901
0.0125227 0.034515999 -0.13732401
0.028883001 0.020653499 -0.145891
0.0280242 0.0278972 -0.144067
0.042518701 0.027805701 -0.148829
0.045095 0.0060744998 -0.154303
0.0430982 0.034417801 -0.145072
0.029762801 0.047733299 -0.132796
0.031119 0.054293498 -0.129187
0.047166999 0.054098502 -0.134241
0.025492501 0.075761497 -0.104362
0.0057055 0.075878501 -0.10239
0.00263275 0.070550501 -0.107718
0.016274299 0.059777498 -0.120346
0.026167801 0.059719 -0.121331
0.032313298 0.070375003 -0.110675
-0.059241299 0.0082042497 -0.15891901
-0.064139701 0.022250701 -0.158255
-0.057535499 0.0220895 -0.155542
-0.039428499 0.0077205002 -0.15078001
-0.0326465 0.00758 -0.147512
-0.037189499 0.021668 -0.14573599
-0.030121 0.021492301 -0.14478
-0.011441 0.0070527499 -0.14464299
-0.049160499 0.035004999 -0.145326
-0.046243001 0.0288525 -0.14811701
-0.059806999 0.029133501 -0.15465499
-0.069506504 0.035426501 -0.155132
-0.0753415 0.0477315 -0.14955001
-0.068559498 0.047591001 -0.146282
-0.0040044999 0.0069357501 -0.143277
-0.0078115002 0.021141199 -0.140681
-0.00070249999 0.0209883 -0.14153901
0.017322499 0.0064767501 -0.145853
0.024945499 0.0064015002 -0.146428
0.0221665 0.020762499 -0.14326601
0.013154 0.028018299 -0.14111
-0.0020920001 0.028168701 -0.13995899
-0.0103463 0.0347418 -0.13559701
-0.0116087 0.0477372 -0.128025
-0.0209285 0.054176498 -0.12581
-0.038305499 0.054059502 -0.128952
-0.047072299 0.059133802 -0.124502
-0.047228701 0.069399297 -0.112461
-0.0572992 0.074034303 -0.111182
-0.077283703 0.073038697 -0.120668
-0.087812498 0.075614803 -0.116003
-0.088885501 0.081762299 -0.097189501
-0.085021697 0.067876697 -0.13074701
-0.077205501 0.067906 -0.126688
-0.0570645 0.058635999 -0.129245
-0.0548103 0.053971801 -0.134582
-0.070442803 0.053913299 -0.142701
-0.080513299 0.058548201 -0.141423
-0.032024499 0.028595001 -0.143482
-0.017151499 0.028361 -0.14074899
-0.019034799 0.034683201 -0.13716801
-0.0376742 0.047561701 -0.13273799
-0.045110799 0.047678798 -0.134104
-0.0413443 0.035034299 -0.141267
-0.181879 0.0073822499 -0.065661497
-0.18363599 -0.00032799999 -0.058379699
-0.17580999 -4.8000002e-05 -0.020807199
-0.170541 0.0230827 -0.042652499
-0.193472 -0.00056449999 -0.092778496
-0.186905 0.0067187501 -0.080600999
-0.185617 0.021092299 -0.087471001
-0.19154 0.020995799 -0.103084
-0.20467401 0.0064292499 -0.12743901
-0.205318 -0.00075750001 -0.124004
-0.176367 0.035109501 -0.081303999
-0.179947 0.028942499 -0.0759665
-0.169897 0.0302695 -0.0460875
-0.159153 0.048770498 -0.062100001
-0.21653999 -0.00085399998 -0.154673
-0.21092799 0.0063335001 -0.141968
-0.21030401 0.020708499 -0.146672
-0.21560299 0.020708499 -0.16172899
-0.226825 0.0063335001 -0.187139
-0.227138 -0.00085399998 -0.18478701
-0.23505101 -0.00077925 -0.214784
-0.23205499 0.006393 -0.20153201
-0.23129299 0.020887 -0.204908
-0.233909 0.020961801 -0.21984801
-0.23989999 0.0066172499 -0.24635001
-0.240281 -0.00062975002 -0.244663
-0.22295 0.034425002 -0.194691
-0.225683 0.028074499 -0.192203
-0.215223 0.0279555 -0.163417
-0.20726 0.034246501 -0.151512
-0.201795 0.046947502 -0.156489
-0.20702501 0.047006998 -0.170882
-0.187364 0.058060002 -0.149161
-0.19246601 0.053424999 -0.145687
-0.17927399 0.053679001 -0.119107
-0.167574 0.058440998 -0.109289
-0.15736701 0.067711003 -0.116237
-0.163964 0.067584001 -0.129528
-0.136553 0.075468503 -0.111729
-0.146038 0.072999701 -0.107308
-0.133586 0.074307203 -0.082503498
-0.105133 0.081713498 -0.095765002
-0.13868999 0.069672197 -0.079029799
-0.161348 0.059094701 -0.096887201
-0.167145 0.054254699 -0.092486501
-0.15607899 0.055152301 -0.065827496
-0.191227 0.0281833 -0.105436
-0.20373701 0.027991701 -0.13449401
-0.200664 0.034373499 -0.13822199
-0.182006 0.047328498 -0.116618
-0.175752 0.047424201 -0.102088
-0.181899 0.034660701 -0.094633497
-0.180162 0.077185802 -0.259368
-0.186836 0.075722203 -0.270726
-0.19915099 0.072560698 -0.27080399
-0.198633 0.0724435 -0.25948501
-0.185284 0.075370498 -0.23676801
-0.17912699 0.076951303 -0.23672999
-0.174658 0.076853797 -0.214296
-0.18426 0.075253204 -0.223976
-0.19555999 0.072091803 -0.22110599
-0.191608 0.072111502 -0.20999201
-0.17240401 0.075312503 -0.190632
-0.16675401 0.0768933 -0.192066
-0.207407 0.066334702 -0.232035
-0.202235 0.070628203 -0.232464
-0.204284 0.070862703 -0.25804999
-0.21048 0.066686504 -0.27041399
-0.220823 0.058099501 -0.269555
-0.219799 0.057982299 -0.25676301
-0.155542 0.077312998 -0.170004
-0.167564 0.075390697 -0.17802501
-0.17708801 0.072346203 -0.17217
-0.169829 0.072746202 -0.161222
-0.145785 0.076590702 -0.14518
-0.141023 0.078112997 -0.14810701
-0.122678 0.080093697 -0.124815
-0.13838799 0.076971203 -0.132796
-0.14763901 0.073887803 -0.124073
-0.100507 0.083255202 -0.100127
-0.15966 0.071965501 -0.132094
-0.17445301 0.071204498 -0.15685999
-0.18615399 0.066442497 -0.166676
-0.19475999 0.0576795 -0.161544
-0.20420501 0.053298 -0.17257001
-0.21449099 0.053298 -0.199756
-0.222453 0.047006998 -0.211661
-0.228093 0.034425002 -0.20828401
-0.23301999 0.028259 -0.22125299
-0.23723599 0.028509 -0.25056499
-0.24023201 0.021336701 -0.26381701
-0.242008 0.0067422502 -0.26100701
-0.236007 0.034926999 -0.26619801
-0.23441599 0.0348 -0.25225401
-0.22455999 0.047132 -0.226317
-0.221224 0.053424999 -0.227293
-0.22440401 0.053679001 -0.25518101
-0.229333 0.047513001 -0.26815
-0.19637001 0.0705892 -0.207065
-0.18669 0.070745803 -0.18185
-0.191296 0.066442497 -0.180269
-0.210187 0.0576795 -0.20232201
-0.215027 0.057601299 -0.21493
-0.205816 0.066207796 -0.218091
-0.114607 -0.082142703 -0.109212
-0.106684 -0.083177 -0.11253
-0.087733999 -0.086728998 -0.094418503
-0.111504 -0.083626203 -0.084465303
-0.12298 -0.080415502 -0.130942
-0.122102 -0.080132499 -0.118345
-0.13398699 -0.077595502 -0.111866
-0.140808 -0.076609999 -0.121223
-0.142565 -0.077175997 -0.14641801
-0.136622 -0.078444503 -0.14965799
-0.138974 -0.074433997 -0.095354997
-0.13243601 -0.078337297 -0.099492498
-0.117447 -0.082357697 -0.0812255
-0.137062 -0.070648 -0.068813004
-0.14841001 -0.077078499 -0.169154
-0.14906301 -0.075995304 -0.156655
-0.16030499 -0.073067799 -0.151933
-0.165271 -0.072687298 -0.162071
-0.163964 -0.074853703 -0.187071
-0.158343 -0.076317497 -0.189432
-0.16611101 -0.075975999 -0.210324
-0.16906799 -0.074502498 -0.19854601
-0.180582 -0.071633503 -0.19649699
-0.183382 -0.071672499 -0.20725
-0.177469 -0.074619502 -0.23080599
-0.171712 -0.076053999 -0.231831
-0.186397 -0.066207998 -0.18163501
-0.181235 -0.070550203 -0.18399701
-0.171028 -0.071252704 -0.161047
-0.171087 -0.067261703 -0.147209
-0.181411 -0.058577199 -0.142487
-0.18651401 -0.058226001 -0.153962
-0.184719 -0.048418202 -0.12463
-0.18038601 -0.055328 -0.128455
-0.16801301 -0.057514001 -0.105113
-0.166159 -0.051697299 -0.089617699
-0.174825 -0.037877701 -0.081967197
-0.18101101 -0.036784701 -0.093638003
-0.177342 -0.023203 -0.0591118
-0.173878 -0.033633001 -0.066969
-0.16332 -0.038963001 -0.044622999
-0.173712 -0.007673 -0.021051301
-0.158987 -0.045872699 -0.048448201
-0.160881 -0.054362301 -0.078444697
-0.155396 -0.061144002 -0.083967701
-0.142536 -0.066218004 -0.065017298
-0.146428 -0.075146303 -0.118862
-0.159426 -0.072784796 -0.13933501
-0.1649 -0.068354703 -0.135539
-0.16285101 -0.061856199 -0.107475
-0.156352 -0.063037001 -0.097238503
-0.145404 -0.071897 -0.10483
-0.24112 -0.0077942498 -0.25808901
-0.23756801 -0.022272799 -0.25506401
-0.234953 -0.022347501 -0.240125
-0.233275 -0.0080185002 -0.21327101
-0.23030899 -0.0079979999 -0.198575
-0.226055 -0.022286 -0.19603799
-0.22075599 -0.022286 -0.18098199
-0.214413 -0.0079979999 -0.153405
-0.222922 -0.035582501 -0.208167
-0.22689299 -0.0294505 -0.209466
-0.23282599 -0.029491501 -0.238856
-0.23182 -0.035643999 -0.25225401
-0.223878 -0.047908001 -0.249659
-0.220911 -0.0478875 -0.234963
-0.209114 -0.0079589998 -0.138592
-0.204859 -0.022169 -0.13654301
-0.198936 -0.0220725 -0.120931
-0.19134399 -0.0076695001 -0.091753997
-0.185451 -0.0080930004 -0.077409998
-0.181255 -0.023343001 -0.077898003
-0.18505099 -0.030544501 -0.092486501
-0.19683801 -0.0296975 -0.121175
-0.19869199 -0.035514299 -0.13667101
-0.190612 -0.047994699 -0.138974
-0.19181301 -0.054108299 -0.15342499
-0.20229299 -0.0538547 -0.18002599
-0.202235 -0.057845701 -0.19386201
-0.19163799 -0.066081204 -0.19493601
-0.189355 -0.0702575 -0.20776699
-0.19538499 -0.070374496 -0.23235799
-0.19242799 -0.071847998 -0.24413601
-0.180484 -0.074677996 -0.243102
-0.203777 -0.066334702 -0.24558
-0.200684 -0.066256702 -0.231821
-0.20524999 -0.057904299 -0.206158
-0.21062601 -0.053805999 -0.207085
-0.216813 -0.053962 -0.234602
-0.21452899 -0.0581383 -0.24743401
-0.218628 -0.029391 -0.179957
-0.20803 -0.029313 -0.150332
-0.203932 -0.035387501 -0.14997099
-0.206333 -0.0476145 -0.178874
-0.211632 -0.0476535 -0.19368701
-0.21982899 -0.035504501 -0.194409
-0.072921202 -0.0057107499 -0.170278
-0.073945999 0.0014795 -0.172132
-0.062509999 0.0012805 -0.163545
-0.059435699 -0.0202902 -0.15798201
-0.084074803 0.0016055 -0.182036
-0.079186 -0.00564925 -0.17443401
-0.078230001 -0.020105699 -0.170453
-0.082640797 -0.0200793 -0.176063
-0.092418298 -0.00556975 -0.191267
-0.092896298 0.0016585001 -0.193258
-0.072189704 -0.034000799 -0.160528
-0.071487203 -0.0273955 -0.164305
-0.0589577 -0.0275185 -0.155992
-0.061065201 -0.047334298 -0.14466199
-0.100097 0.00163325 -0.205474
-0.097355798 -0.00555425 -0.196907
-0.097453304 -0.020032801 -0.192985
-0.100244 -0.0200845 -0.199591
-0.105728 -0.0057095001 -0.21672501
-0.105679 0.0015297499 -0.218687
-0.109485 0.00137225 -0.232484
-0.109075 -0.0057602501 -0.223546
-0.110285 -0.020236701 -0.220053
-0.1113 -0.020342501 -0.227244
-0.112119 -0.0060775001 -0.24512
-0.111515 0.00116075 -0.246867
-0.109758 -0.033803999 -0.20872401
-0.107543 -0.0274242 -0.211485
-0.100849 -0.027322801 -0.197844
-0.099716999 -0.033651799 -0.188262
-0.104147 -0.046411201 -0.18273801
-0.107494 -0.046461999 -0.189559
-0.103854 -0.057845499 -0.169214
-0.100703 -0.052956801 -0.173595
-0.089383498 -0.0532883 -0.160831
-0.086875796 -0.058342699 -0.150068
-0.093179204 -0.068120196 -0.141306
-0.098839 -0.067954503 -0.147687
-0.091812998 -0.076883003 -0.124033
-0.088300303 -0.073555499 -0.13146
-0.072238803 -0.074648499 -0.120531
-0.082777001 -0.084631003 -0.098252997
-0.069086999 -0.069759697 -0.124912
-0.078845002 -0.058889199 -0.144604
-0.076668799 -0.053590801 -0.15002
-0.062558196 -0.0538642 -0.14116
-0.082689501 -0.0273185 -0.17410301
-0.092564501 -0.0272875 -0.18538301
-0.0940575 -0.0338175 -0.18188
-0.0871685 -0.046908502 -0.16359299
-0.082231 -0.046923999 -0.15795299
-0.079245001 -0.033863999 -0.164959
-0.168657 -0.074522004 -0.242496
-0.156948 -0.071379997 -0.24232
-0.154147 -0.071341 -0.23156799
-0.160256 -0.074405 -0.210236
-0.157739 -0.074346498 -0.20081
-0.146595 -0.071165502 -0.203288
-0.141628 -0.071546003 -0.19315
-0.142838 -0.075488001 -0.170394
-0.138515 -0.065388702 -0.214393
-0.14354099 -0.069633499 -0.213955
-0.14857499 -0.069750503 -0.232807
-0.14606801 -0.0655642 -0.242672
-0.136016 -0.0570747 -0.24355
-0.133499 -0.057016201 -0.234124
-0.138173 -0.0757512 -0.16143601
-0.127634 -0.072335698 -0.16627599
-0.120814 -0.073321298 -0.156918
-0.117711 -0.078707702 -0.13336299
-0.111202 -0.079302996 -0.12541901
-0.101288 -0.075107001 -0.13308901
-0.102839 -0.072413698 -0.144867
-0.115856 -0.071223304 -0.160753
-0.118364 -0.0661688 -0.171516
-0.110362 -0.057250299 -0.177157
-0.110401 -0.052712701 -0.18769599
-0.118481 -0.052556299 -0.203133
-0.119613 -0.046227299 -0.212715
-0.113798 -0.033725701 -0.216442
-0.112471 -0.027595 -0.225761
-0.115633 -0.027835 -0.24067099
-0.116042 -0.0207025 -0.24960899
-0.1137 -0.0061975 -0.25257501
-0.120658 -0.034173701 -0.24709199
-0.11854 -0.034085799 -0.23880699
-0.121194 -0.046347301 -0.22016899
-0.124638 -0.052565999 -0.219135
-0.12887301 -0.052742001 -0.235705
-0.127546 -0.046611201 -0.245024
-0.13635799 -0.069838203 -0.19557001
-0.12703 -0.070364803 -0.177654
-0.122404 -0.066090502 -0.179235
-0.122482 -0.057015501 -0.200312
-0.12714601 -0.056752201 -0.20927
-0.136397 -0.065300703 -0.206109
-0.098897502 0.074033998 -0.12834699
-0.122141 0.077019997 -0.134221
-0.13025001 0.076659001 -0.142057
-0.123224 0.072950996 -0.15185501
-0.130484 0.072550997 -0.16280299
-0.15202899 0.075459003 -0.17490201
-0.109348 0.066793799 -0.154254
-0.111602 0.071457997 -0.148917
-0.095384501 0.072180003 -0.133246
-0.088621996 0.058187298 -0.149258
-0.157786 0.075370997 -0.183772
-0.147756 0.072287001 -0.189413
-0.15170801 0.072267197 -0.200527
-0.169643 0.075311802 -0.217116
-0.172628 0.075390004 -0.226512
-0.160666 0.072502002 -0.228718
-0.161183 0.0726192 -0.240036
-0.174181 0.075741798 -0.26047
-0.14669301 0.066862002 -0.222268
-0.15169799 0.070979699 -0.220423
-0.145726 0.070823297 -0.201629
-0.13773499 0.066627197 -0.194077
-0.12772299 0.058391701 -0.19776499
-0.13070901 0.05847 -0.20716199
-0.114394 0.048154701 -0.194057
-0.118082 0.054186299 -0.19243699
-0.108811 0.0540107 -0.178093
-0.100488 0.047891501 -0.17254101
-0.093110502 0.035828501 -0.17578
-0.097746 0.035916299 -0.182952
-0.081264503 0.022643 -0.17286199
-0.0837138 0.029666301 -0.17253099
-0.072297201 0.0294048 -0.162792
-0.064949498 0.0083349999 -0.16378801
-0.0759857 0.035436299 -0.161173
-0.094779298 0.047760699 -0.16767199
-0.097696804 0.053913299 -0.16488101
-0.084738299 0.053893801 -0.15280101
-0.125468 0.071009003 -0.16562299
-0.13698301 0.070832998 -0.18336301
-0.133099 0.066539504 -0.186905
-0.113817 0.058128498 -0.176249
-0.108059 0.058216501 -0.16737901
-0.115827 0.0668035 -0.16029499
-0.114013 0.0083020004 -0.25562999
-0.116979 0.022795999 -0.25877199
-0.115964 0.0229018 -0.25158
-0.110968 0.0086192498 -0.234055
-0.110422 0.0086639998 -0.226473
-0.114325 0.023035999 -0.228835
-0.111534 0.0230878 -0.222229
-0.102049 0.0088192504 -0.206655
-0.120638 0.036361799 -0.238896
-0.116823 0.030177301 -0.237597
-0.117915 0.030087801 -0.25276101
-0.122277 0.036227498 -0.261641
-0.12990899 0.048596501 -0.26423699
-0.129362 0.048641201 -0.25665501
-0.099580497 0.0088007497 -0.1996
-0.104127 0.0230322 -0.20106301
-0.099716797 0.0230058 -0.195452
-0.086348303 0.0087212501 -0.182767
-0.082103498 0.0086335 -0.176668
-0.086982504 0.022742501 -0.177156
-0.093666703 0.0298848 -0.18349899
-0.102156 0.030060301 -0.195696
-0.11048 0.036179502 -0.20124801
-0.118638 0.048242498 -0.200156
-0.12520599 0.054371499 -0.207583
-0.130182 0.054566499 -0.223527
-0.138173 0.058762498 -0.231079
-0.14918099 0.0669595 -0.230239
-0.154928 0.071155503 -0.23960701
-0.155416 0.0713505 -0.25918299
-0.16191401 0.072911799 -0.26939899
-0.17442399 0.075839303 -0.27025801
-0.150176 0.067281201 -0.268112
-0.149913 0.067252003 -0.25960201
-0.13841701 0.05886 -0.240867
-0.13293301 0.0546933 -0.240008
-0.13346 0.054751799 -0.25702599
-0.139208 0.058947701 -0.26639399
-0.113807 0.030203501 -0.22296099
-0.108869 0.030166499 -0.20885
-0.112968 0.036277 -0.20922101
-0.126103 0.048535001 -0.22407299
-0.128571 0.0485535 -0.23112801
